ply
format ascii 1.0
element vertex 801
property float x
property float y
property float z
end_header
229.000000 1192.000000 996.000000
1996.000000 943.000000 999.000000
1141.000000 1271.000000 1003.000000
836.000000 702.000000 993.000000
1473.000000 859.000000 1000.000000
692.000000 1145.000000 1023.000000
1687.000000 1198.000000 997.000000
1068.000000 944.000000 990.000000
1401.000000 1141.000000 976.000000
888.000000 1303.000000 977.000000
470.000000 1260.000000 1005.000000
1932.000000 1180.000000 998.000000
1.000000 1160.000000 1000.000000
1784.000000 1001.000000 1008.000000
866.000000 906.000000 1015.000000
960.000000 1116.000000 1021.000000
1242.000000 1032.000000 1011.000000
1562.000000 1075.000000 1004.000000
1305.000000 1271.000000 1002.000000
1112.000000 1116.000000 976.000000
87.000000 1291.000000 1002.000000
1393.000000 992.000000 1023.000000
966.000000 789.000000 988.000000
374.000000 1138.000000 1000.000000
545.000000 1130.000000 990.000000
829.000000 1167.000000 973.000000
614.000000 1261.000000 981.000000
1010.000000 1237.000000 975.000000
1909.000000 1047.000000 972.000000
763.000000 818.000000 987.000000
760.000000 1276.000000 1019.000000
1806.000000 1135.000000 1024.000000
1228.000000 1164.000000 1021.000000
1515.000000 1195.000000 1002.000000
337.000000 1259.000000 995.000000
951.000000 995.000000 985.000000
1686.000000 1074.000000 978.000000
120.000000 1138.000000 996.000000
1415.000000 1241.000000 1024.000000
976.000000 893.000000 1019.000000
1042.000000 1045.000000 1019.000000
865.000000 800.000000 1019.000000
913.000000 1211.000000 1021.000000
1315.000000 1105.000000 1023.000000
1142.000000 1023.000000 1001.000000
1981.000000 1096.000000 1022.000000
1382.000000 898.000000 993.000000
1477.000000 957.000000 986.000000
1601.000000 1159.000000 974.000000
1084.000000 1196.000000 1021.000000
1906.000000 964.000000 1015.000000
462.000000 1167.000000 1012.000000
699.000000 1224.000000 972.000000
1319.000000 1184.000000 976.000000
1479.000000 1112.000000 1013.000000
547.000000 1216.000000 1023.000000
1221.000000 1241.000000 976.000000
623.000000 1172.000000 973.000000
1325.000000 1028.000000 978.000000
1029.000000 1145.000000 976.000000
1826.000000 1069.000000 973.000000
1889.000000 1111.000000 1025.000000
764.000000 1191.000000 1023.000000
1155.000000 1189.000000 976.000000
876.000000 1116.000000 1021.000000
71.000000 1206.000000 991.000000
838.000000 1247.000000 1019.000000
291.000000 1137.000000 999.000000
1740.000000 1137.000000 974.000000
1405.000000 1073.000000 1022.000000
911.000000 733.000000 1011.000000
1970.000000 1015.000000 1026.000000
917.000000 853.000000 981.000000
1753.000000 1074.000000 1022.000000
404.000000 1217.000000 991.000000
1855.000000 1177.000000 979.000000
1656.000000 1131.000000 1023.000000
1189.000000 1116.000000 976.000000
1859.000000 1023.000000 1023.000000
800.000000 762.000000 1019.000000
787.000000 1121.000000 1013.000000
963.000000 1178.000000 977.000000
327.000000 1194.000000 1028.000000
950.000000 1271.000000 1000.000000
1068.000000 1267.000000 1008.000000
265.000000 1255.000000 1001.000000
828.000000 852.000000 985.000000
1262.000000 1119.000000 976.000000
1446.000000 1176.000000 1021.000000
1004.000000 960.000000 1019.000000
926.000000 928.000000 981.000000
2001.000000 1163.000000 999.000000
1534.000000 1133.000000 973.000000
649.000000 1215.000000 1023.000000
1935.000000 1113.000000 971.000000
1364.000000 1239.000000 975.000000
982.000000 1060.000000 985.000000
1629.000000 1054.000000 1013.000000
1372.000000 1186.000000 1021.000000
1774.000000 1191.000000 1000.000000
1279.000000 1211.000000 1025.000000
739.000000 1149.000000 973.000000
1036.000000 883.000000 988.000000
161.000000 1192.000000 1003.000000
897.000000 1163.000000 976.000000
500.000000 1208.000000 974.000000
1440.000000 914.000000 1023.000000
1721.000000 1021.000000 998.000000
800.000000 1266.000000 967.000000
1975.000000 1054.000000 971.000000
1358.000000 1086.000000 977.000000
1011.000000 1190.000000 1021.000000
1063.000000 1108.000000 1019.000000
1352.000000 956.000000 986.000000
1080.000000 1008.000000 982.000000
1952.000000 983.000000 973.000000
1151.000000 1143.000000 1021.000000
1182.000000 1222.000000 1024.000000
195.000000 1138.000000 1000.000000
1441.000000 1010.000000 985.000000
1570.000000 1137.000000 1025.000000
1002.000000 835.000000 1012.000000
598.000000 1143.000000 1023.000000
533.000000 1261.000000 981.000000
1415.000000 951.000000 978.000000
58.000000 1137.000000 993.000000
882.000000 1240.000000 976.000000
1444.000000 1217.000000 975.000000
1862.000000 983.000000 977.000000
1012.000000 1007.000000 981.000000
1105.000000 1230.000000 975.000000
1626.000000 1103.000000 977.000000
1150.000000 1083.000000 1011.000000
564.000000 1186.000000 973.000000
1930.000000 1064.000000 1026.000000
1477.000000 1157.000000 973.000000
1385.000000 1031.000000 978.000000
1631.000000 1188.000000 1017.000000
857.000000 1190.000000 1021.000000
1862.000000 1117.000000 972.000000
863.000000 754.000000 981.000000
1260.000000 1185.000000 976.000000
1498.000000 910.000000 1014.000000
684.000000 1261.000000 1015.000000
1713.000000 1118.000000 1022.000000
908.000000 791.000000 981.000000
1080.000000 1067.000000 981.000000
1284.000000 1067.000000 991.000000
286.000000 1197.000000 987.000000
787.000000 1209.000000 973.000000
1438.000000 1091.000000 978.000000
1683.000000 1145.000000 974.000000
1369.000000 1125.000000 1021.000000
1285.000000 1154.000000 1021.000000
1352.000000 1051.000000 1023.000000
707.000000 1200.000000 1023.000000
681.000000 1170.000000 973.000000
1771.000000 1046.000000 976.000000
1806.000000 1051.000000 1023.000000
518.000000 1167.000000 1023.000000
1792.000000 1114.000000 973.000000
1334.000000 1228.000000 1024.000000
835.000000 1111.000000 983.000000
879.000000 1284.000000 1029.000000
1050.000000 1197.000000 976.000000
824.000000 795.000000 981.000000
927.000000 1116.000000 976.000000
913.000000 969.000000 1016.000000
1418.000000 858.000000 1005.000000
46.000000 1255.000000 994.000000
1010.000000 1093.000000 1019.000000
1103.000000 1171.000000 976.000000
497.000000 1151.000000 973.000000
1940.000000 1133.000000 1025.000000
646.000000 1129.000000 998.000000
967.000000 1223.000000 1020.000000
749.000000 1248.000000 973.000000
1326.000000 1130.000000 976.000000
877.000000 853.000000 1019.000000
1426.000000 1123.000000 1021.000000
943.000000 1039.000000 1016.000000
1193.000000 1034.000000 987.000000
1728.000000 1171.000000 1020.000000
598.000000 1197.000000 1023.000000
948.000000 831.000000 1019.000000
937.000000 1225.000000 975.000000
918.000000 891.000000 1019.000000
1338.000000 996.000000 1019.000000
928.000000 1159.000000 1020.000000
1886.000000 1165.000000 1021.000000
1000.000000 922.000000 981.000000
1839.000000 1093.000000 1023.000000
1275.000000 1236.000000 975.000000
359.000000 1187.000000 986.000000
1517.000000 1147.000000 1025.000000
1440.000000 968.000000 1022.000000
573.000000 1261.000000 1015.000000
1207.000000 1181.000000 976.000000
1049.000000 987.000000 1019.000000
1129.000000 1225.000000 1025.000000
1912.000000 1015.000000 1025.000000
1822.000000 1017.000000 976.000000
1396.000000 1197.000000 976.000000
417.000000 1166.000000 986.000000
986.000000 1116.000000 976.000000
1566.000000 1185.000000 1002.000000
1099.000000 1146.000000 1021.000000
832.000000 1144.000000 1023.000000
1251.000000 1268.000000 1008.000000
1387.000000 941.000000 1022.000000
968.000000 859.000000 981.000000
1736.000000 1086.000000 975.000000
110.000000 1184.000000 1016.000000
647.000000 1223.000000 972.000000
1170.000000 1239.000000 975.000000
1957.000000 965.000000 1023.000000
1298.000000 1028.000000 1021.000000
957.000000 941.000000 1019.000000
841.000000 1287.000000 988.000000
496.000000 1220.000000 1023.000000
1212.000000 1116.000000 1021.000000
743.000000 1144.000000 1023.000000
1049.000000 1157.000000 1021.000000
1459.000000 902.000000 978.000000
1985.000000 1120.000000 978.000000
789.000000 1235.000000 1019.000000
1678.000000 1041.000000 1015.000000
103.000000 1243.000000 1002.000000
1899.000000 1151.000000 974.000000
1807.000000 1162.000000 976.000000
837.000000 1216.000000 979.000000
1031.000000 1236.000000 1020.000000
1193.000000 1268.000000 1008.000000
1602.000000 1099.000000 1020.000000
803.000000 823.000000 1016.000000
1231.000000 1221.000000 1021.000000
1034.000000 921.000000 1019.000000
385.000000 1260.000000 1005.000000
574.000000 1234.000000 973.000000
243.000000 1145.000000 995.000000
1002.000000 1141.000000 1020.000000
43.000000 1177.000000 1018.000000
1578.000000 1113.000000 976.000000
982.000000 1010.000000 1019.000000
1825.000000 1179.000000 1018.000000
740.000000 1198.000000 973.000000
1518.000000 1092.000000 993.000000
1333.000000 1157.000000 1021.000000
453.000000 1218.000000 989.000000
1031.000000 1072.000000 981.000000
1758.000000 1134.000000 1024.000000
1089.000000 1038.000000 1018.000000
1907.000000 998.000000 974.000000
933.000000 775.000000 1019.000000
1385.000000 1271.000000 1003.000000
304.000000 1234.000000 1018.000000
786.000000 1146.000000 973.000000
639.000000 1169.000000 1023.000000
1882.000000 1064.000000 1025.000000
590.000000 1138.000000 977.000000
727.000000 1243.000000 1023.000000
996.000000 1266.000000 1009.000000
873.000000 826.000000 981.000000
1673.000000 1087.000000 1021.000000
1863.000000 1039.000000 973.000000
1829.000000 989.000000 1013.000000
866.000000 726.000000 1019.000000
811.000000 1186.000000 1023.000000
1360.000000 1163.000000 976.000000
1183.000000 1176.000000 1021.000000
816.000000 742.000000 981.000000
428.000000 1246.000000 1017.000000
1645.000000 1171.000000 977.000000
881.000000 1120.000000 976.000000
1105.000000 1089.000000 1012.000000
806.000000 1279.000000 1017.000000
1434.000000 1172.000000 976.000000
1258.000000 1117.000000 1021.000000
1029.000000 965.000000 981.000000
319.000000 1167.000000 980.000000
1148.000000 1144.000000 976.000000
359.000000 1224.000000 1013.000000
1320.000000 1229.000000 975.000000
1386.000000 986.000000 978.000000
613.000000 1242.000000 1023.000000
1851.000000 1137.000000 1024.000000
1614.000000 1147.000000 1023.000000
1418.000000 1029.000000 1020.000000
1073.000000 1137.000000 982.000000
910.000000 1256.000000 1013.000000
1006.000000 1190.000000 976.000000
1990.000000 987.000000 998.000000
981.000000 962.000000 981.000000
907.000000 814.000000 1019.000000
1127.000000 1181.000000 1021.000000
1964.000000 1160.000000 975.000000
562.000000 1171.000000 1023.000000
264.000000 1176.000000 1019.000000
89.000000 1167.000000 981.000000
1793.000000 1093.000000 1022.000000
1600.000000 1068.000000 983.000000
970.000000 1172.000000 1020.000000
1896.000000 1089.000000 972.000000
1058.000000 1240.000000 975.000000
1735.000000 1184.000000 979.000000
1408.000000 1241.000000 981.000000
1399.000000 1072.000000 979.000000
1289.000000 1153.000000 973.000000
883.000000 880.000000 985.000000
1225.000000 1141.000000 976.000000
843.000000 763.000000 1019.000000
1686.000000 1162.000000 1022.000000
1124.000000 1059.000000 987.000000
1982.000000 1054.000000 1013.000000
700.000000 1133.000000 983.000000
885.000000 1158.000000 1021.000000
326.000000 1215.000000 987.000000
1711.000000 1068.000000 1020.000000
1757.000000 1032.000000 1019.000000
1965.000000 1167.000000 1021.000000
511.000000 1259.000000 1017.000000
1406.000000 1161.000000 1021.000000
960.000000 903.000000 981.000000
918.000000 1116.000000 1018.000000
1474.000000 1204.000000 1005.000000
606.000000 1209.000000 983.000000
1944.000000 1024.000000 971.000000
656.000000 1262.000000 984.000000
901.000000 929.000000 1015.000000
322.000000 1153.000000 1022.000000
389.000000 1180.000000 1014.000000
876.000000 1230.000000 1021.000000
785.000000 781.000000 984.000000
1869.000000 982.000000 1021.000000
875.000000 1198.000000 976.000000
711.000000 1262.000000 983.000000
298.000000 1244.000000 978.000000
766.000000 1286.000000 979.000000
1444.000000 1132.000000 976.000000
892.000000 769.000000 1019.000000
1420.000000 889.000000 978.000000
1317.000000 1089.000000 977.000000
1375.000000 1227.000000 1024.000000
193.000000 1176.000000 983.000000
1345.000000 1265.000000 1009.000000
1001.000000 1048.000000 1019.000000
1046.000000 1031.000000 981.000000
507.000000 1131.000000 1007.000000
939.000000 819.000000 981.000000
960.000000 1076.000000 1015.000000
1411.000000 1201.000000 1021.000000
1032.000000 1269.000000 990.000000
842.000000 833.000000 1018.000000
1090.000000 1236.000000 1021.000000
1704.000000 1111.000000 978.000000
495.000000 1248.000000 976.000000
1655.000000 1048.000000 983.000000
1012.000000 875.000000 1019.000000
1313.000000 1065.000000 1023.000000
839.000000 876.000000 1015.000000
1315.000000 1193.000000 1021.000000
538.000000 1215.000000 984.000000
1477.000000 1151.000000 1023.000000
131.000000 1175.000000 983.000000
1471.000000 939.000000 1021.000000
426.000000 1247.000000 977.000000
821.000000 728.000000 1019.000000
1939.000000 1073.000000 971.000000
976.000000 1216.000000 976.000000
1540.000000 1111.000000 1020.000000
50.000000 1174.000000 979.000000
1347.000000 995.000000 979.000000
1103.000000 1267.000000 989.000000
1045.000000 1109.000000 981.000000
1535.000000 1173.000000 976.000000
368.000000 1238.000000 977.000000
1665.000000 1108.000000 976.000000
260.000000 1217.000000 1009.000000
1497.000000 1122.000000 979.000000
1251.000000 1087.000000 997.000000
754.000000 1223.000000 1003.000000
959.000000 1141.000000 989.000000
1351.000000 1090.000000 1023.000000
525.000000 1178.000000 973.000000
1366.000000 1124.000000 976.000000
1408.000000 892.000000 1022.000000
1937.000000 953.000000 992.000000
440.000000 1138.000000 999.000000
1287.000000 1029.000000 984.000000
1354.000000 1201.000000 976.000000
1987.000000 1134.000000 1020.000000
784.000000 1158.000000 1023.000000
998.000000 883.000000 981.000000
1021.000000 1013.000000 1019.000000
1756.000000 1011.000000 984.000000
1602.000000 1193.000000 992.000000
1440.000000 1087.000000 1016.000000
1447.000000 875.000000 1023.000000
1039.000000 921.000000 981.000000
158.000000 1146.000000 996.000000
959.000000 979.000000 1019.000000
916.000000 852.000000 1019.000000
1769.000000 1162.000000 976.000000
925.000000 1189.000000 976.000000
930.000000 1003.000000 1016.000000
1168.000000 1049.000000 1011.000000
976.000000 1023.000000 981.000000
901.000000 754.000000 981.000000
1071.000000 1071.000000 1019.000000
1082.000000 977.000000 1004.000000
1282.000000 1087.000000 1023.000000
1175.000000 1116.000000 1011.000000
1047.000000 1202.000000 1021.000000
923.000000 890.000000 981.000000
1421.000000 1042.000000 985.000000
992.000000 1154.000000 977.000000
1827.000000 1130.000000 973.000000
1381.000000 933.000000 980.000000
1985.000000 1024.000000 991.000000
679.000000 1211.000000 1001.000000
116.000000 1210.000000 990.000000
1295.000000 1116.000000 993.000000
257.000000 1175.000000 978.000000
1445.000000 1219.000000 1024.000000
1716.000000 1052.000000 978.000000
980.000000 824.000000 984.000000
19.000000 1192.000000 994.000000
648.000000 1254.000000 1021.000000
885.000000 719.000000 988.000000
1381.000000 1028.000000 1023.000000
494.000000 1180.000000 998.000000
861.000000 791.000000 981.000000
50.000000 1291.000000 1002.000000
674.000000 1181.000000 1023.000000
996.000000 924.000000 1019.000000
875.000000 1273.000000 994.000000
1363.000000 969.000000 1021.000000
1131.000000 1115.000000 1008.000000
881.000000 921.000000 985.000000
1445.000000 974.000000 979.000000
1843.000000 1056.000000 1024.000000
949.000000 868.000000 1019.000000
1280.000000 1246.000000 1012.000000
1862.000000 1076.000000 975.000000
1924.000000 1100.000000 1027.000000
776.000000 798.000000 1015.000000
1790.000000 1077.000000 974.000000
932.000000 964.000000 985.000000
845.000000 1252.000000 979.000000
862.000000 1151.000000 976.000000
1184.000000 1152.000000 976.000000
793.000000 839.000000 985.000000
1781.000000 1162.000000 1022.000000
827.000000 796.000000 1019.000000
433.000000 1189.000000 1009.000000
1354.000000 1050.000000 977.000000
1566.000000 1150.000000 973.000000
1985.000000 1085.000000 987.000000
1637.000000 1090.000000 1020.000000
937.000000 757.000000 988.000000
1260.000000 1180.000000 1025.000000
1970.000000 952.000000 975.000000
573.000000 1209.000000 999.000000
78.000000 1167.000000 1015.000000
975.000000 1251.000000 983.000000
1232.000000 1207.000000 975.000000
1632.000000 1138.000000 974.000000
958.000000 1095.000000 985.000000
1397.000000 1116.000000 1001.000000
339.000000 1139.000000 994.000000
1448.000000 938.000000 978.000000
1197.000000 1215.000000 975.000000
1491.000000 887.000000 988.000000
769.000000 1177.000000 973.000000
758.000000 1128.000000 994.000000
1290.000000 1204.000000 976.000000
1487.000000 923.000000 982.000000
1047.000000 996.000000 981.000000
1012.000000 1042.000000 981.000000
1080.000000 1102.000000 981.000000
1139.000000 1222.000000 975.000000
1031.000000 1122.000000 1017.000000
1490.000000 1189.000000 978.000000
1156.000000 1200.000000 1017.000000
1538.000000 1175.000000 1020.000000
944.000000 1195.000000 1021.000000
209.000000 1169.000000 1013.000000
813.000000 1215.000000 1004.000000
1889.000000 1180.000000 990.000000
948.000000 1054.000000 985.000000
1086.000000 1201.000000 976.000000
1049.000000 952.000000 1019.000000
779.000000 1253.000000 991.000000
900.000000 950.000000 986.000000
475.000000 1138.000000 996.000000
542.000000 1142.000000 1022.000000
1893.000000 968.000000 983.000000
715.000000 1174.000000 973.000000
1939.000000 994.000000 1025.000000
813.000000 1253.000000 996.000000
1157.000000 1243.000000 1014.000000
298.000000 1178.000000 1019.000000
1016.000000 855.000000 988.000000
733.000000 1177.000000 1023.000000
1439.000000 1002.000000 1018.000000
1702.000000 1173.000000 977.000000
930.000000 1155.000000 977.000000
850.000000 888.000000 985.000000
1341.000000 1116.000000 1003.000000
1825.000000 1023.000000 1022.000000
1549.000000 1096.000000 980.000000
651.000000 1153.000000 973.000000
653.000000 1189.000000 973.000000
720.000000 1219.000000 998.000000
841.000000 1112.000000 1017.000000
802.000000 1118.000000 983.000000
464.000000 1230.000000 1019.000000
396.000000 1232.000000 1020.000000
454.000000 1182.000000 983.000000
1062.000000 1018.000000 1019.000000
1919.000000 1159.000000 1022.000000
1593.000000 1173.000000 1020.000000
936.000000 1236.000000 1020.000000
1492.000000 1181.000000 1022.000000
958.000000 799.000000 1019.000000
1120.000000 1148.000000 994.000000
898.000000 1303.000000 1009.000000
1687.000000 1036.000000 983.000000
350.000000 1169.000000 1013.000000
1211.000000 1194.000000 1024.000000
1171.000000 1073.000000 987.000000
1444.000000 866.000000 985.000000
959.000000 937.000000 981.000000
904.000000 1215.000000 976.000000
946.000000 909.000000 1019.000000
1194.000000 1144.000000 1021.000000
925.000000 1255.000000 983.000000
1932.000000 1147.000000 973.000000
1234.000000 1116.000000 996.000000
581.000000 1230.000000 1024.000000
1942.000000 1033.000000 1026.000000
1654.000000 1198.000000 994.000000
1222.000000 1270.000000 992.000000
1001.000000 1222.000000 1021.000000
1788.000000 1017.000000 978.000000
1858.000000 1180.000000 1012.000000
1069.000000 1170.000000 976.000000
981.000000 860.000000 1019.000000
542.000000 1249.000000 1022.000000
1155.000000 1105.000000 987.000000
814.000000 854.000000 1015.000000
1256.000000 1152.000000 976.000000
696.000000 1231.000000 1023.000000
407.000000 1138.000000 1000.000000
1456.000000 1154.000000 998.000000
1039.000000 1078.000000 1019.000000
1002.000000 1087.000000 981.000000
574.000000 1130.000000 1005.000000
1743.000000 1105.000000 1021.000000
1464.000000 982.000000 1005.000000
1760.000000 1108.000000 974.000000
861.000000 856.000000 985.000000
46.000000 1223.000000 1003.000000
1422.000000 941.000000 1023.000000
1651.000000 1163.000000 1022.000000
1101.000000 1036.000000 988.000000
613.000000 1129.000000 998.000000
1314.000000 1007.000000 1000.000000
560.000000 1153.000000 973.000000
27.000000 1141.000000 1001.000000
1632.000000 1071.000000 981.000000
1509.000000 1154.000000 972.000000
460.000000 1247.000000 977.000000
287.000000 1164.000000 982.000000
842.000000 1168.000000 1003.000000
905.000000 823.000000 981.000000
78.000000 1261.000000 993.000000
937.000000 1024.000000 988.000000
1330.000000 1027.000000 1022.000000
841.000000 823.000000 981.000000
1311.000000 1057.000000 977.000000
1803.000000 1046.000000 975.000000
1281.000000 1055.000000 1022.000000
270.000000 1229.000000 981.000000
660.000000 1145.000000 1023.000000
1238.000000 1058.000000 993.000000
1469.000000 898.000000 1022.000000
1408.000000 1009.000000 979.000000
1384.000000 1097.000000 1023.000000
384.000000 1166.000000 986.000000
1092.000000 1006.000000 1012.000000
140.000000 1171.000000 1014.000000
1395.000000 870.000000 986.000000
89.000000 1140.000000 1002.000000
727.000000 1129.000000 1000.000000
737.000000 1264.000000 1001.000000
1207.000000 1241.000000 1017.000000
1867.000000 1148.000000 974.000000
1904.000000 1120.000000 972.000000
1805.000000 1187.000000 995.000000
1410.000000 920.000000 979.000000
1362.000000 932.000000 1005.000000
1276.000000 1268.000000 989.000000
565.000000 1262.000000 984.000000
1571.000000 1104.000000 1020.000000
890.000000 1189.000000 1021.000000
591.000000 1170.000000 973.000000
1835.000000 1099.000000 972.000000
1877.000000 1011.000000 974.000000
801.000000 1181.000000 973.000000
178.000000 1166.000000 1010.000000
1119.000000 1198.000000 976.000000
888.000000 883.000000 1016.000000
1127.000000 1091.000000 987.000000
519.000000 1199.000000 1023.000000
1952.000000 1086.000000 1027.000000
1598.000000 1068.000000 1014.000000
1718.000000 1195.000000 1003.000000
1432.000000 1233.000000 999.000000
855.000000 724.000000 981.000000
984.000000 993.000000 981.000000
1364.000000 1156.000000 1021.000000
1509.000000 1117.000000 1019.000000
840.000000 1216.000000 1019.000000
1466.000000 1112.000000 985.000000
1961.000000 1096.000000 971.000000
1118.000000 1253.000000 1013.000000
1386.000000 1100.000000 977.000000
1310.000000 1136.000000 1021.000000
481.000000 1208.000000 999.000000
853.000000 1274.000000 1016.000000
683.000000 1250.000000 975.000000
988.000000 1110.000000 1006.000000
1093.000000 1116.000000 1021.000000
1255.000000 1148.000000 1021.000000
622.000000 1212.000000 1009.000000
1128.000000 1249.000000 984.000000
1168.000000 1266.000000 989.000000
1626.000000 1119.000000 1022.000000
1303.000000 1230.000000 1024.000000
797.000000 1287.000000 989.000000
1418.000000 1114.000000 979.000000
835.000000 766.000000 981.000000
1016.000000 1118.000000 983.000000
1808.000000 994.000000 990.000000
842.000000 1138.000000 995.000000
676.000000 1130.000000 1002.000000
737.000000 1207.000000 1023.000000
1977.000000 1000.000000 974.000000
396.000000 1249.000000 979.000000
796.000000 809.000000 985.000000
630.000000 1140.000000 1021.000000
1887.000000 1034.000000 1024.000000
1729.000000 1043.000000 1018.000000
1281.000000 1094.000000 978.000000
306.000000 1205.000000 1008.000000
1683.000000 1116.000000 1022.000000
1460.000000 1191.000000 978.000000
335.000000 1241.000000 1019.000000
1212.000000 1033.000000 1011.000000
1455.000000 1130.000000 1016.000000
1327.000000 1256.000000 986.000000
1345.000000 1199.000000 1021.000000
1249.000000 1247.000000 985.000000
1742.000000 1037.000000 979.000000
506.000000 1228.000000 996.000000
1389.000000 1168.000000 971.000000
969.000000 1252.000000 1013.000000
1061.000000 1229.000000 1020.000000
308.000000 1259.000000 1002.000000
1776.000000 1055.000000 1022.000000
898.000000 1275.000000 975.000000
75.000000 1233.000000 1003.000000
1924.000000 973.000000 974.000000
1604.000000 1128.000000 974.000000
984.000000 811.000000 1011.000000
1077.000000 1167.000000 1021.000000
329.000000 1188.000000 999.000000
1253.000000 1241.000000 1023.000000
973.000000 1039.000000 1016.000000
680.000000 1201.000000 973.000000
527.000000 1146.000000 973.000000
1669.000000 1186.000000 1017.000000
955.000000 1145.000000 1020.000000
937.000000 786.000000 981.000000
1422.000000 1072.000000 998.000000
1071.000000 1137.000000 1021.000000
1405.000000 965.000000 1023.000000
820.000000 1139.000000 973.000000
1064.000000 972.000000 981.000000
1376.000000 1068.000000 1023.000000
1657.000000 1062.000000 1017.000000
1788.000000 1028.000000 1020.000000
1868.000000 1090.000000 1025.000000
928.000000 943.000000 1016.000000
1032.000000 1174.000000 976.000000
609.000000 1170.000000 1023.000000
866.000000 1285.000000 969.000000
1035.000000 1222.000000 976.000000
861.000000 1141.000000 1021.000000
1730.000000 1142.000000 1023.000000
1673.000000 1179.000000 978.000000
1026.000000 1149.000000 1005.000000
762.000000 1246.000000 1019.000000
983.000000 1198.000000 1021.000000
223.000000 1165.000000 987.000000
1107.000000 1060.000000 1011.000000
808.000000 1229.000000 979.000000
1387.000000 912.000000 1018.000000
1911.000000 1131.000000 1025.000000
621.000000 1143.000000 973.000000
619.000000 1233.000000 973.000000
1977.000000 986.000000 1024.000000
1287.000000 1118.000000 1021.000000
1415.000000 980.000000 978.000000
1003.000000 990.000000 1019.000000
1258.000000 1035.000000 987.000000
601.000000 1263.000000 1007.000000
790.000000 1206.000000 1023.000000
1966.000000 946.000000 1003.000000
1712.000000 1144.000000 975.000000
1335.000000 976.000000 998.000000
1959.000000 1131.000000 972.000000
1288.000000 1183.000000 1019.000000
1366.000000 1002.000000 1022.000000
1746.000000 1191.000000 1008.000000
923.000000 991.000000 990.000000
1440.000000 1111.000000 999.000000
1195.000000 1251.000000 985.000000
729.000000 1227.000000 972.000000
705.000000 1171.000000 1023.000000
1299.000000 1248.000000 985.000000
163.000000 1171.000000 983.000000
1132.000000 1172.000000 976.000000
904.000000 1116.000000 993.000000
1233.000000 1169.000000 976.000000
847.000000 1189.000000 976.000000
861.000000 1116.000000 996.000000
989.000000 1074.000000 1016.000000
1990.000000 1148.000000 977.000000
1577.000000 1085.000000 982.000000
1331.000000 1158.000000 976.000000
237.000000 1165.000000 1016.000000
1834.000000 991.000000 979.000000
1975.000000 1176.000000 996.000000
1898.000000 990.000000 1023.000000
521.000000 1235.000000 973.000000
1049.000000 904.000000 1002.000000
859.000000 1241.000000 1001.000000
430.000000 1220.000000 1006.000000
1227.000000 1032.000000 987.000000
1782.000000 1119.000000 1024.000000
941.000000 868.000000 981.000000
1155.000000 1172.000000 1021.000000
1358.000000 1021.000000 978.000000
1771.000000 1134.000000 973.000000
881.000000 825.000000 1019.000000
1433.000000 1151.000000 1021.000000
1140.000000 1056.000000 1010.000000
775.000000 826.000000 1012.000000
400.000000 1189.000000 989.000000
814.000000 1122.000000 1021.000000
1761.000000 1073.000000 975.000000
1073.000000 1039.000000 981.000000
1084.000000 1247.000000 983.000000
889.000000 851.000000 981.000000
876.000000 1258.000000 1019.000000
1879.000000 1138.000000 1024.000000
843.000000 710.000000 1019.000000
1057.000000 1083.000000 981.000000
495.000000 1151.000000 1023.000000
1658.000000 1081.000000 978.000000
1111.000000 1204.000000 1021.000000
1564.000000 1164.000000 1021.000000
1837.000000 1156.000000 975.000000
1829.000000 1119.000000 1025.000000
793.000000 755.000000 993.000000
1906.000000 1079.000000 1024.000000
340.000000 1238.000000 977.000000
95.000000 1192.000000 993.000000
1964.000000 1119.000000 1026.000000
1834.000000 1042.000000 974.000000
443.000000 1258.000000 996.000000
1100.000000 1141.000000 976.000000
192.000000 1190.000000 1007.000000
1958.000000 1059.000000 1026.000000
269.000000 1153.000000 1004.000000
942.000000 1116.000000 1000.000000
1395.000000 1135.000000 1021.000000
1424.000000 1198.000000 976.000000
981.000000 1149.000000 1004.000000
668.000000 1235.000000 1023.000000
1320.000000 1250.000000 1012.000000
24.000000 1166.000000 986.000000
359.000000 1254.000000 1012.000000
767.000000 1227.000000 979.000000
1363.000000 1264.000000 988.000000
1387.000000 1223.000000 975.000000
522.000000 1229.000000 1024.000000
1578.000000 1174.000000 979.000000
1816.000000 1078.000000 1024.000000
