ply
format ascii 1.0
element vertex 802
property float x
property float y
property float z
end_header
1017.000000 882.000000 266.000000
1025.000000 1060.000000 2001.000000
1008.000000 1055.000000 1125.000000
1027.000000 1155.000000 659.000000
1033.000000 1028.000000 1562.000000
1027.000000 1043.000000 9.000000
1047.000000 964.000000 863.000000
1006.000000 900.000000 545.000000
1057.000000 942.000000 1335.000000
1015.000000 1177.000000 934.000000
1002.000000 1042.000000 1781.000000
1021.000000 832.000000 3.000000
1013.000000 1102.000000 457.000000
1027.000000 1046.000000 190.000000
992.000000 986.000000 698.000000
1031.000000 826.000000 411.000000
1050.000000 1013.000000 338.000000
1017.000000 1108.000000 801.000000
1015.000000 1060.000000 1417.000000
992.000000 917.000000 123.000000
965.000000 947.000000 1218.000000
997.000000 970.000000 1003.000000
923.000000 1019.000000 572.000000
1026.000000 1060.000000 1270.000000
980.000000 943.000000 1473.000000
1072.000000 938.000000 1131.000000
1050.000000 1035.000000 593.000000
995.000000 977.000000 445.000000
1038.000000 896.000000 761.000000
1032.000000 1013.000000 1892.000000
1028.000000 1059.000000 931.000000
1031.000000 1058.000000 1672.000000
1042.000000 889.000000 650.000000
1022.000000 1162.000000 549.000000
1046.000000 936.000000 28.000000
968.000000 956.000000 1110.000000
1070.000000 958.000000 1233.000000
992.000000 981.000000 261.000000
1053.000000 1007.000000 100.000000
1050.000000 1016.000000 777.000000
1032.000000 1057.000000 1030.000000
1072.000000 956.000000 1498.000000
1049.000000 942.000000 195.000000
1039.000000 849.000000 170.000000
1018.000000 1076.000000 711.000000
1050.000000 980.000000 519.000000
992.000000 964.000000 609.000000
1044.000000 902.000000 461.000000
1016.000000 929.000000 344.000000
981.000000 955.000000 1383.000000
992.000000 1035.000000 850.000000
1061.000000 1124.000000 877.000000
998.000000 1050.000000 524.000000
1069.000000 1016.000000 1170.000000
1035.000000 854.000000 85.000000
992.000000 956.000000 799.000000
982.000000 956.000000 1299.000000
992.000000 985.000000 922.000000
1057.000000 959.000000 1417.000000
980.000000 1116.000000 891.000000
1050.000000 985.000000 1067.000000
1001.000000 842.000000 336.000000
1027.000000 1025.000000 1344.000000
966.000000 1139.000000 712.000000
999.000000 1084.000000 632.000000
992.000000 1021.000000 1196.000000
1073.000000 1134.000000 720.000000
1067.000000 1122.000000 955.000000
992.000000 992.000000 146.000000
1003.000000 1039.000000 1491.000000
1034.000000 1043.000000 270.000000
1050.000000 1023.000000 668.000000
1010.000000 838.000000 482.000000
998.000000 988.000000 52.000000
1046.000000 1020.000000 412.000000
992.000000 897.000000 198.000000
1049.000000 942.000000 705.000000
1050.000000 944.000000 281.000000
1011.000000 1164.000000 845.000000
1050.000000 999.000000 963.000000
992.000000 991.000000 375.000000
1016.000000 964.000000 1164.000000
1018.000000 1159.000000 753.000000
999.000000 895.000000 704.000000
1022.000000 1061.000000 1844.000000
1044.000000 1125.000000 601.000000
1000.000000 886.000000 37.000000
1049.000000 939.000000 95.000000
1027.000000 1162.000000 482.000000
992.000000 1034.000000 981.000000
1050.000000 960.000000 641.000000
1012.000000 1058.000000 1936.000000
1035.000000 1105.000000 519.000000
974.000000 1129.000000 955.000000
992.000000 989.000000 548.000000
992.000000 1014.000000 1059.000000
982.000000 1028.000000 604.000000
992.000000 1026.000000 749.000000
1032.000000 1024.000000 475.000000
1003.000000 1038.000000 1618.000000
1049.000000 998.000000 227.000000
997.000000 943.000000 499.000000
1017.000000 884.000000 389.000000
1050.000000 1034.000000 877.000000
1031.000000 1027.000000 1727.000000
992.000000 1015.000000 314.000000
1047.000000 971.000000 580.000000
1050.000000 954.000000 779.000000
992.000000 965.000000 202.000000
1016.000000 1046.000000 129.000000
1049.000000 905.000000 147.000000
1049.000000 994.000000 165.000000
1000.000000 944.000000 740.000000
1044.000000 1058.000000 820.000000
1028.000000 917.000000 599.000000
1006.000000 1189.000000 703.000000
992.000000 938.000000 663.000000
1043.000000 881.000000 321.000000
1049.000000 1041.000000 1085.000000
1015.000000 1041.000000 71.000000
1050.000000 998.000000 722.000000
985.000000 1139.000000 622.000000
992.000000 929.000000 288.000000
1009.000000 1072.000000 576.000000
1042.000000 1072.000000 764.000000
1037.000000 1052.000000 1213.000000
992.000000 978.000000 856.000000
993.000000 1029.000000 660.000000
1034.000000 987.000000 7.000000
1050.000000 990.000000 1123.000000
1001.000000 862.000000 129.000000
996.000000 934.000000 66.000000
1044.000000 953.000000 1282.000000
999.000000 874.000000 441.000000
1043.000000 959.000000 468.000000
992.000000 1002.000000 1129.000000
1050.000000 1032.000000 537.000000
1060.000000 1128.000000 773.000000
1018.000000 1096.000000 857.000000
1045.000000 976.000000 378.000000
1045.000000 893.000000 219.000000
996.000000 947.000000 9.000000
1050.000000 1007.000000 1017.000000
1047.000000 970.000000 917.000000
991.000000 1136.000000 513.000000
1074.000000 963.000000 1179.000000
963.000000 954.000000 1164.000000
994.000000 1018.000000 222.000000
1047.000000 1109.000000 680.000000
992.000000 1011.000000 802.000000
1050.000000 1005.000000 829.000000
1041.000000 883.000000 4.000000
1002.000000 1109.000000 750.000000
994.000000 1116.000000 674.000000
1050.000000 996.000000 288.000000
992.000000 995.000000 495.000000
995.000000 1123.000000 571.000000
992.000000 1034.000000 902.000000
1040.000000 1171.000000 889.000000
998.000000 1060.000000 788.000000
1050.000000 1137.000000 827.000000
1019.000000 1107.000000 947.000000
995.000000 1019.000000 417.000000
1043.000000 898.000000 61.000000
1045.000000 1045.000000 983.000000
1036.000000 1032.000000 1453.000000
1038.000000 915.000000 509.000000
992.000000 929.000000 238.000000
1021.000000 948.000000 544.000000
991.000000 1006.000000 98.000000
1000.000000 1051.000000 1888.000000
1015.000000 966.000000 1097.000000
1047.000000 964.000000 327.000000
1041.000000 847.000000 365.000000
1043.000000 1060.000000 635.000000
1045.000000 976.000000 61.000000
1044.000000 854.000000 451.000000
998.000000 955.000000 1253.000000
992.000000 1164.000000 893.000000
992.000000 967.000000 322.000000
1037.000000 1052.000000 1164.000000
1025.000000 1024.000000 1968.000000
1001.000000 889.000000 85.000000
1034.000000 995.000000 1196.000000
1005.000000 888.000000 487.000000
1019.000000 985.000000 756.000000
1019.000000 996.000000 636.000000
1020.000000 1061.000000 1530.000000
1008.000000 970.000000 1050.000000
1049.000000 953.000000 141.000000
1052.000000 1129.000000 458.000000
1004.000000 1050.000000 1311.000000
1017.000000 1026.000000 702.000000
991.000000 957.000000 1429.000000
992.000000 933.000000 168.000000
1050.000000 1096.000000 913.000000
993.000000 960.000000 105.000000
1038.000000 973.000000 424.000000
1035.000000 1030.000000 1812.000000
1006.000000 928.000000 456.000000
1009.000000 1028.000000 1241.000000
1014.000000 969.000000 960.000000
1032.000000 949.000000 822.000000
1016.000000 1155.000000 800.000000
1048.000000 1016.000000 920.000000
999.000000 888.000000 308.000000
992.000000 1143.000000 458.000000
1030.000000 1026.000000 1390.000000
1033.000000 1152.000000 706.000000
1054.000000 1166.000000 955.000000
1008.000000 1055.000000 1071.000000
1043.000000 892.000000 715.000000
1024.000000 848.000000 297.000000
1034.000000 854.000000 40.000000
1048.000000 1042.000000 731.000000
1015.000000 1022.000000 568.000000
990.000000 1124.000000 836.000000
1041.000000 979.000000 681.000000
1022.000000 1024.000000 374.000000
1050.000000 1128.000000 556.000000
1000.000000 818.000000 442.000000
1041.000000 1017.000000 44.000000
1073.000000 1145.000000 677.000000
999.000000 888.000000 660.000000
1064.000000 1146.000000 917.000000
1044.000000 893.000000 105.000000
1041.000000 1057.000000 1903.000000
1050.000000 933.000000 238.000000
1051.000000 952.000000 1460.000000
1015.000000 1060.000000 1367.000000
1041.000000 970.000000 996.000000
1016.000000 1065.000000 669.000000
994.000000 950.000000 1342.000000
1060.000000 1123.000000 641.000000
1014.000000 1156.000000 591.000000
1086.000000 957.000000 1274.000000
1052.000000 959.000000 1374.000000
1020.000000 1061.000000 1586.000000
992.000000 1040.000000 1025.000000
1036.000000 1113.000000 724.000000
1002.000000 1042.000000 1699.000000
1010.000000 1087.000000 901.000000
995.000000 1020.000000 179.000000
1003.000000 844.000000 384.000000
1050.000000 1034.000000 1127.000000
1047.000000 1146.000000 516.000000
1000.000000 1011.000000 16.000000
1036.000000 1063.000000 511.000000
998.000000 1021.000000 272.000000
1049.000000 902.000000 284.000000
999.000000 895.000000 746.000000
986.000000 1140.000000 773.000000
992.000000 976.000000 1196.000000
1032.000000 1057.000000 1756.000000
1040.000000 927.000000 667.000000
994.000000 924.000000 622.000000
998.000000 893.000000 157.000000
1004.000000 883.000000 349.000000
994.000000 1018.000000 460.000000
1015.000000 969.000000 891.000000
1038.000000 1039.000000 229.000000
992.000000 1033.000000 1156.000000
1026.000000 1024.000000 1649.000000
997.000000 1021.000000 941.000000
1043.000000 950.000000 1202.000000
1037.000000 815.000000 462.000000
1014.000000 1025.000000 1098.000000
1041.000000 934.000000 744.000000
993.000000 1155.000000 685.000000
1036.000000 884.000000 425.000000
1040.000000 852.000000 125.000000
1030.000000 1026.000000 1292.000000
1011.000000 910.000000 5.000000
1030.000000 889.000000 182.000000
1004.000000 1064.000000 747.000000
1050.000000 998.000000 611.000000
1002.000000 948.000000 1130.000000
1003.000000 1024.000000 1917.000000
1059.000000 959.000000 1100.000000
1017.000000 1024.000000 1857.000000
1020.000000 1060.000000 874.000000
1050.000000 996.000000 454.000000
1019.000000 1034.000000 618.000000
1043.000000 924.000000 316.000000
1045.000000 1021.000000 137.000000
1023.000000 1112.000000 647.000000
985.000000 1103.000000 928.000000
1029.000000 1026.000000 1055.000000
1050.000000 996.000000 886.000000
992.000000 977.000000 660.000000
992.000000 947.000000 701.000000
1032.000000 1013.000000 1158.000000
1030.000000 1026.000000 1516.000000
1029.000000 1024.000000 306.000000
1004.000000 867.000000 3.000000
1015.000000 935.000000 776.000000
1044.000000 1053.000000 694.000000
995.000000 1109.000000 712.000000
1001.000000 855.000000 167.000000
1022.000000 1021.000000 512.000000
1037.000000 1158.000000 622.000000
1043.000000 1060.000000 563.000000
1007.000000 1112.000000 606.000000
1050.000000 973.000000 256.000000
1050.000000 1007.000000 567.000000
992.000000 996.000000 586.000000
992.000000 1002.000000 1023.000000
992.000000 996.000000 976.000000
1021.000000 1028.000000 820.000000
1022.000000 1102.000000 555.000000
1008.000000 1055.000000 1189.000000
1002.000000 975.000000 408.000000
982.000000 1156.000000 930.000000
1019.000000 983.000000 88.000000
1007.000000 1105.000000 494.000000
1031.000000 1058.000000 1634.000000
1037.000000 901.000000 566.000000
997.000000 892.000000 236.000000
1039.000000 956.000000 1134.000000
992.000000 995.000000 1091.000000
992.000000 1000.000000 886.000000
1035.000000 1030.000000 1600.000000
1025.000000 1144.000000 948.000000
1049.000000 925.000000 629.000000
1038.000000 985.000000 126.000000
1046.000000 971.000000 1033.000000
1020.000000 1024.000000 1003.000000
1010.000000 961.000000 363.000000
1039.000000 1047.000000 1487.000000
1038.000000 872.000000 483.000000
1005.000000 1052.000000 1453.000000
1009.000000 1072.000000 821.000000
1005.000000 964.000000 573.000000
1000.000000 1151.000000 722.000000
1021.000000 1037.000000 769.000000
1014.000000 954.000000 638.000000
1015.000000 1060.000000 965.000000
1041.000000 1094.000000 621.000000
1050.000000 985.000000 798.000000
995.000000 1019.000000 350.000000
1042.000000 842.000000 328.000000
1048.000000 1017.000000 196.000000
965.000000 960.000000 1267.000000
1050.000000 969.000000 745.000000
1038.000000 1184.000000 687.000000
1003.000000 1046.000000 1817.000000
985.000000 959.000000 1505.000000
1034.000000 1029.000000 951.000000
1050.000000 981.000000 1159.000000
1036.000000 1032.000000 1929.000000
1006.000000 861.000000 63.000000
948.000000 1018.000000 598.000000
1002.000000 1042.000000 1742.000000
1011.000000 1027.000000 2001.000000
1045.000000 1158.000000 856.000000
1049.000000 978.000000 197.000000
1023.000000 1024.000000 440.000000
1036.000000 1040.000000 100.000000
1014.000000 1025.000000 1424.000000
992.000000 993.000000 733.000000
1032.000000 950.000000 510.000000
1015.000000 1025.000000 876.000000
1039.000000 1047.000000 1319.000000
1003.000000 1046.000000 1557.000000
1023.000000 1131.000000 775.000000
1021.000000 918.000000 85.000000
1034.000000 1029.000000 1692.000000
1034.000000 1066.000000 600.000000
1003.000000 847.000000 419.000000
985.000000 1143.000000 865.000000
1012.000000 1058.000000 1001.000000
1050.000000 1026.000000 632.000000
1039.000000 858.000000 398.000000
1026.000000 1060.000000 1717.000000
1005.000000 1052.000000 1973.000000
992.000000 953.000000 139.000000
992.000000 985.000000 779.000000
1040.000000 1107.000000 482.000000
1004.000000 996.000000 1170.000000
1030.000000 889.000000 683.000000
1008.000000 1042.000000 246.000000
1050.000000 998.000000 489.000000
1034.000000 1029.000000 1776.000000
1046.000000 947.000000 1167.000000
1038.000000 880.000000 355.000000
1023.000000 951.000000 600.000000
1049.000000 1015.000000 257.000000
1027.000000 1060.000000 1796.000000
1003.000000 850.000000 97.000000
992.000000 982.000000 822.000000
996.000000 971.000000 519.000000
1050.000000 1008.000000 1094.000000
992.000000 931.000000 204.000000
1014.000000 1161.000000 515.000000
999.000000 952.000000 1219.000000
992.000000 1016.000000 527.000000
1039.000000 1106.000000 757.000000
1002.000000 1042.000000 1665.000000
1005.000000 901.000000 580.000000
1037.000000 1106.000000 830.000000
1033.000000 1028.000000 1189.000000
1025.000000 1024.000000 164.000000
1009.000000 1038.000000 37.000000
1038.000000 1047.000000 1871.000000
997.000000 921.000000 35.000000
1002.000000 1108.000000 528.000000
1050.000000 1094.000000 947.000000
1014.000000 1087.000000 775.000000
993.000000 946.000000 1181.000000
1005.000000 911.000000 512.000000
1046.000000 941.000000 61.000000
1050.000000 994.000000 648.000000
1055.000000 965.000000 1311.000000
1020.000000 913.000000 640.000000
1005.000000 991.000000 295.000000
1006.000000 995.000000 199.000000
1043.000000 1140.000000 742.000000
1050.000000 1035.000000 843.000000
992.000000 967.000000 169.000000
1050.000000 901.000000 251.000000
1017.000000 1060.000000 1238.000000
1022.000000 1022.000000 736.000000
997.000000 978.000000 20.000000
1004.000000 1035.000000 1274.000000
993.000000 1143.000000 545.000000
967.000000 1136.000000 679.000000
1001.000000 952.000000 832.000000
992.000000 904.000000 267.000000
1040.000000 1094.000000 882.000000
1039.000000 1038.000000 1249.000000
1049.000000 973.000000 96.000000
998.000000 1044.000000 722.000000
1024.000000 1035.000000 652.000000
1028.000000 955.000000 7.000000
1021.000000 985.000000 715.000000
1026.000000 1060.000000 1098.000000
998.000000 1048.000000 557.000000
987.000000 970.000000 1149.000000
996.000000 1020.000000 130.000000
1050.000000 1008.000000 370.000000
1035.000000 1054.000000 1961.000000
1031.000000 1045.000000 902.000000
1044.000000 1046.000000 790.000000
1002.000000 1042.000000 1392.000000
992.000000 1001.000000 619.000000
995.000000 968.000000 476.000000
1045.000000 969.000000 951.000000
999.000000 1140.000000 653.000000
1046.000000 928.000000 480.000000
1018.000000 1024.000000 1130.000000
973.000000 1011.000000 1170.000000
992.000000 961.000000 234.000000
1044.000000 1171.000000 921.000000
1017.000000 951.000000 85.000000
1006.000000 1032.000000 1586.000000
1044.000000 950.000000 1250.000000
1013.000000 904.000000 435.000000
992.000000 961.000000 290.000000
1070.000000 1107.000000 703.000000
1040.000000 874.000000 150.000000
1042.000000 870.000000 282.000000
998.000000 1051.000000 635.000000
1019.000000 955.000000 445.000000
1075.000000 966.000000 1146.000000
993.000000 1042.000000 814.000000
996.000000 955.000000 42.000000
1050.000000 1021.000000 700.000000
1018.000000 1102.000000 691.000000
1021.000000 1066.000000 539.000000
1050.000000 962.000000 225.000000
1003.000000 1036.000000 100.000000
1000.000000 919.000000 317.000000
970.000000 939.000000 1137.000000
1049.000000 915.000000 177.000000
1024.000000 1014.000000 86.000000
1044.000000 903.000000 30.000000
996.000000 1131.000000 805.000000
1050.000000 974.000000 833.000000
1045.000000 969.000000 30.000000
1021.000000 1132.000000 461.000000
1005.000000 1045.000000 591.000000
1003.000000 913.000000 678.000000
1003.000000 1046.000000 1342.000000
1039.000000 1152.000000 573.000000
1043.000000 1140.000000 797.000000
1049.000000 924.000000 122.000000
1050.000000 967.000000 611.000000
1007.000000 1159.000000 630.000000
1008.000000 846.000000 452.000000
1045.000000 971.000000 548.000000
993.000000 1170.000000 955.000000
1004.000000 1003.000000 672.000000
992.000000 956.000000 767.000000
1031.000000 1076.000000 799.000000
991.000000 1109.000000 863.000000
1039.000000 1041.000000 1415.000000
1003.000000 920.000000 721.000000
1000.000000 865.000000 288.000000
1000.000000 1024.000000 490.000000
1004.000000 987.000000 118.000000
1075.000000 947.000000 1205.000000
1017.000000 969.000000 929.000000
1041.000000 1016.000000 13.000000
1049.000000 964.000000 170.000000
999.000000 1152.000000 488.000000
1050.000000 1033.000000 1034.000000
1050.000000 1135.000000 488.000000
992.000000 988.000000 345.000000
1009.000000 1043.000000 214.000000
993.000000 974.000000 1116.000000
1022.000000 1024.000000 337.000000
1000.000000 1045.000000 686.000000
1035.000000 900.000000 536.000000
1022.000000 1045.000000 848.000000
1050.000000 985.000000 349.000000
1050.000000 999.000000 752.000000
1004.000000 1035.000000 1528.000000
995.000000 1019.000000 387.000000
1018.000000 1024.000000 919.000000
1001.000000 1017.000000 59.000000
1001.000000 889.000000 116.000000
992.000000 1005.000000 843.000000
1036.000000 994.000000 937.000000
975.000000 1130.000000 917.000000
993.000000 924.000000 94.000000
1017.000000 962.000000 859.000000
996.000000 916.000000 482.000000
994.000000 1093.000000 955.000000
992.000000 1031.000000 780.000000
1050.000000 1010.000000 517.000000
1031.000000 1058.000000 1392.000000
969.000000 1113.000000 698.000000
1043.000000 1140.000000 679.000000
1002.000000 1042.000000 1215.000000
1050.000000 1010.000000 859.000000
992.000000 945.000000 263.000000
1025.000000 956.000000 757.000000
1033.000000 905.000000 340.000000
1050.000000 991.000000 403.000000
1041.000000 915.000000 694.000000
1039.000000 1042.000000 1365.000000
1017.000000 888.000000 211.000000
1004.000000 1022.000000 1884.000000
1043.000000 1152.000000 769.000000
1023.000000 1132.000000 621.000000
1048.000000 1016.000000 989.000000
1028.000000 1107.000000 584.000000
1044.000000 1053.000000 664.000000
1032.000000 1057.000000 1557.000000
996.000000 969.000000 75.000000
1006.000000 1031.000000 1946.000000
1049.000000 1041.000000 761.000000
1018.000000 923.000000 559.000000
1050.000000 971.000000 709.000000
992.000000 1013.000000 710.000000
1027.000000 1025.000000 1218.000000
1009.000000 847.000000 25.000000
992.000000 990.000000 230.000000
1013.000000 1171.000000 874.000000
1050.000000 1030.000000 814.000000
1064.000000 1118.000000 926.000000
1032.000000 1066.000000 735.000000
1031.000000 1084.000000 647.000000
997.000000 897.000000 460.000000
1016.000000 1030.000000 539.000000
1019.000000 846.000000 146.000000
1050.000000 1007.000000 1048.000000
1009.000000 1029.000000 1367.000000
1038.000000 1036.000000 1991.000000
966.000000 961.000000 1192.000000
1015.000000 1177.000000 905.000000
1050.000000 992.000000 318.000000
998.000000 905.000000 61.000000
1021.000000 980.000000 660.000000
1011.000000 1040.000000 290.000000
1031.000000 1058.000000 1441.000000
1039.000000 1038.000000 1840.000000
1038.000000 843.000000 477.000000
1024.000000 1024.000000 1478.000000
998.000000 863.000000 473.000000
1047.000000 1107.000000 857.000000
1019.000000 970.000000 1023.000000
1046.000000 944.000000 1495.000000
1062.000000 1154.000000 702.000000
1036.000000 1053.000000 1062.000000
1050.000000 954.000000 670.000000
1024.000000 1020.000000 792.000000
1039.000000 918.000000 6.000000
1009.000000 1056.000000 1159.000000
993.000000 1117.000000 472.000000
997.000000 1117.000000 636.000000
1008.000000 1065.000000 612.000000
1040.000000 1155.000000 457.000000
1005.000000 995.000000 950.000000
992.000000 1034.000000 1082.000000
1050.000000 969.000000 299.000000
973.000000 942.000000 1245.000000
1035.000000 856.000000 11.000000
1018.000000 1024.000000 974.000000
1030.000000 1181.000000 716.000000
998.000000 1137.000000 747.000000
1042.000000 829.000000 437.000000
1031.000000 1158.000000 825.000000
1006.000000 993.000000 466.000000
992.000000 1033.000000 1114.000000
1020.000000 1086.000000 928.000000
1060.000000 1151.000000 889.000000
992.000000 967.000000 721.000000
1003.000000 1046.000000 929.000000
1017.000000 1024.000000 1317.000000
1013.000000 1066.000000 1908.000000
1001.000000 1129.000000 947.000000
994.000000 972.000000 1075.000000
1005.000000 993.000000 171.000000
1033.000000 953.000000 349.000000
1020.000000 1024.000000 402.000000
1034.000000 928.000000 454.000000
1009.000000 1104.000000 831.000000
1011.000000 1045.000000 1045.000000
1051.000000 1128.000000 703.000000
1020.000000 1061.000000 1502.000000
1037.000000 971.000000 1182.000000
1005.000000 878.000000 414.000000
1001.000000 921.000000 756.000000
1028.000000 881.000000 85.000000
1015.000000 975.000000 539.000000
1028.000000 887.000000 241.000000
992.000000 1003.000000 647.000000
1048.000000 967.000000 494.000000
1049.000000 921.000000 213.000000
1026.000000 970.000000 1072.000000
1043.000000 1002.000000 70.000000
995.000000 1044.000000 876.000000
1033.000000 1056.000000 1137.000000
1031.000000 1058.000000 1344.000000
1004.000000 1038.000000 153.000000
1016.000000 971.000000 1136.000000
1037.000000 918.000000 722.000000
1020.000000 1024.000000 1753.000000
1049.000000 1041.000000 931.000000
1024.000000 894.000000 735.000000
999.000000 861.000000 315.000000
1039.000000 871.000000 61.000000
1024.000000 1022.000000 676.000000
999.000000 1150.000000 825.000000
1018.000000 1166.000000 683.000000
1022.000000 1066.000000 1882.000000
1035.000000 938.000000 795.000000
1015.000000 840.000000 360.000000
1020.000000 1050.000000 802.000000
1012.000000 1127.000000 726.000000
1028.000000 1059.000000 1297.000000
989.000000 1132.000000 699.000000
1003.000000 1047.000000 1860.000000
1015.000000 1025.000000 1830.000000
1010.000000 815.000000 467.000000
992.000000 1018.000000 554.000000
1013.000000 1160.000000 457.000000
1073.000000 1118.000000 678.000000
997.000000 1135.000000 596.000000
995.000000 1044.000000 955.000000
1017.000000 886.000000 640.000000
1048.000000 1147.000000 644.000000
1048.000000 914.000000 85.000000
1021.000000 1087.000000 749.000000
992.000000 1012.000000 998.000000
1021.000000 1130.000000 667.000000
1040.000000 1032.000000 562.000000
1025.000000 1022.000000 593.000000
992.000000 1010.000000 248.000000
1019.000000 969.000000 387.000000
939.000000 999.000000 580.000000
1018.000000 1060.000000 1475.000000
1039.000000 1042.000000 1536.000000
1044.000000 1022.000000 284.000000
1000.000000 965.000000 683.000000
1003.000000 869.000000 372.000000
1020.000000 1024.000000 1030.000000
1010.000000 1028.000000 1175.000000
1041.000000 1122.000000 947.000000
1043.000000 968.000000 889.000000
1047.000000 1044.000000 1010.000000
1050.000000 998.000000 542.000000
1037.000000 954.000000 727.000000
998.000000 1024.000000 632.000000
996.000000 974.000000 634.000000
1056.000000 1134.000000 853.000000
992.000000 1011.000000 917.000000
1006.000000 1053.000000 1641.000000
999.000000 1117.000000 775.000000
964.000000 965.000000 1137.000000
992.000000 1002.000000 437.000000
1049.000000 931.000000 156.000000
1008.000000 1000.000000 1196.000000
1039.000000 1028.000000 68.000000
1040.000000 856.000000 425.000000
1076.000000 962.000000 1120.000000
1046.000000 941.000000 608.000000
1030.000000 895.000000 493.000000
1050.000000 981.000000 772.000000
1001.000000 1150.000000 569.000000
1062.000000 965.000000 1267.000000
1050.000000 924.000000 264.000000
1050.000000 960.000000 806.000000
1022.000000 1024.000000 116.000000
1014.000000 1025.000000 1797.000000
1050.000000 1124.000000 530.000000
996.000000 944.000000 310.000000
1028.000000 836.000000 387.000000
992.000000 946.000000 1277.000000
1025.000000 1045.000000 718.000000
978.000000 1142.000000 894.000000
992.000000 975.000000 1030.000000
1035.000000 971.000000 1113.000000
1045.000000 1150.000000 543.000000
1044.000000 995.000000 30.000000
1015.000000 1024.000000 197.000000
995.000000 946.000000 1155.000000
1017.000000 985.000000 689.000000
1033.000000 1056.000000 1821.000000
1050.000000 998.000000 428.000000
1031.000000 1178.000000 955.000000
992.000000 973.000000 946.000000
992.000000 1026.000000 579.000000
1024.000000 1061.000000 779.000000
998.000000 961.000000 1319.000000
1025.000000 1024.000000 254.000000
1040.000000 877.000000 30.000000
1000.000000 969.000000 746.000000
1032.000000 1044.000000 149.000000
1011.000000 1027.000000 1450.000000
1017.000000 969.000000 987.000000
992.000000 1002.000000 758.000000
1035.000000 1054.000000 1609.000000
1008.000000 1055.000000 897.000000
1023.000000 1125.000000 749.000000
1018.000000 1020.000000 851.000000
1038.000000 1115.000000 788.000000
1055.000000 1138.000000 621.000000
1036.000000 1032.000000 1627.000000
1019.000000 836.000000 319.000000
992.000000 998.000000 403.000000
992.000000 973.000000 881.000000
987.000000 959.000000 1454.000000
1066.000000 1146.000000 945.000000
992.000000 911.000000 220.000000
1021.000000 1050.000000 572.000000
992.000000 989.000000 1055.000000
1049.000000 957.000000 116.000000
988.000000 947.000000 1406.000000
1008.000000 1152.000000 776.000000
1063.000000 1114.000000 901.000000
1027.000000 1025.000000 1267.000000
1004.000000 1012.000000 1149.000000
1004.000000 950.000000 337.000000
1048.000000 1032.000000 1152.000000
1054.000000 964.000000 1482.000000
1012.000000 943.000000 807.000000
1017.000000 1024.000000 1674.000000
1038.000000 1106.000000 457.000000
1044.000000 879.000000 449.000000
1028.000000 1085.000000 955.000000
1050.000000 983.000000 1096.000000
998.000000 998.000000 75.000000
1041.000000 1005.000000 683.000000
992.000000 918.000000 148.000000
1018.000000 1066.000000 635.000000
1018.000000 1024.000000 229.000000
1040.000000 877.000000 125.000000
1039.000000 1046.000000 1580.000000
1001.000000 1053.000000 835.000000
1007.000000 932.000000 602.000000
1045.000000 1024.000000 497.000000
1041.000000 1045.000000 614.000000
1008.000000 905.000000 338.000000
1044.000000 1056.000000 534.000000
1036.000000 997.000000 186.000000
1046.000000 959.000000 1225.000000
1047.000000 1017.000000 1071.000000
1044.000000 1021.000000 453.000000
993.000000 1016.000000 866.000000
1027.000000 920.000000 759.000000
992.000000 909.000000 175.000000
992.000000 948.000000 628.000000
1030.000000 961.000000 565.000000
1018.000000 1060.000000 1693.000000
1031.000000 1075.000000 686.000000
1043.000000 1010.000000 1136.000000
1017.000000 846.000000 118.000000
1017.000000 975.000000 1196.000000
984.000000 968.000000 1174.000000
1021.000000 1045.000000 745.000000
1049.000000 898.000000 195.000000
1043.000000 860.000000 308.000000
1037.000000 1149.000000 599.000000
1007.000000 1030.000000 1720.000000
1026.000000 1155.000000 730.000000
1033.000000 1056.000000 1188.000000
1028.000000 1037.000000 1896.000000
995.000000 970.000000 976.000000
1004.000000 1049.000000 1098.000000
1050.000000 976.000000 974.000000
