ply
format ascii 1.0
element vertex 805
property float x
property float y
property float z
end_header
1000.000000 510.000000 783.000000
1005.000000 1994.000000 1994.000000
1000.000000 1994.000000 8.000000
1003.000000 12.000000 1997.000000
1001.000000 1567.000000 1002.000000
1002.000000 1002.000000 1833.000000
999.000000 1045.000000 1.000000
1001.000000 12.000000 5.000000
1000.000000 1.000000 1284.000000
1005.000000 973.000000 1205.000000
1007.000000 1516.000000 392.000000
1000.000000 1550.000000 1597.000000
1001.000000 461.000000 1632.000000
1001.000000 528.000000 222.000000
999.000000 1.000000 560.000000
1001.000000 2001.000000 658.000000
1003.000000 1042.000000 662.000000
1001.000000 2001.000000 1313.000000
1001.000000 1400.000000 2001.000000
997.000000 423.000000 1203.000000
1001.000000 631.000000 2001.000000
1004.000000 1594.000000 1.000000
994.000000 146.000000 922.000000
1001.000000 1188.000000 1509.000000
1000.000000 879.000000 332.000000
995.000000 93.000000 1639.000000
1004.000000 808.000000 1527.000000
1004.000000 1900.000000 1652.000000
1007.000000 1862.000000 334.000000
997.000000 1221.000000 960.000000
1004.000000 1909.000000 986.000000
997.000000 332.000000 497.000000
1005.000000 819.000000 910.000000
1006.000000 1670.000000 687.000000
1001.000000 1205.000000 287.000000
996.000000 1431.000000 1295.000000
999.000000 321.000000 1918.000000
1008.000000 1695.000000 1892.000000
991.000000 1357.000000 665.000000
998.000000 318.000000 1.000000
1002.000000 738.000000 1.000000
1000.000000 633.000000 508.000000
999.000000 119.000000 285.000000
1002.000000 1717.000000 1250.000000
1004.000000 698.000000 1266.000000
1001.000000 1319.000000 35.000000
1000.000000 245.000000 1411.000000
993.000000 1268.000000 1766.000000
1003.000000 689.000000 1753.000000
1001.000000 593.000000 1020.000000
997.000000 1212.000000 1199.000000
1009.000000 805.000000 671.000000
1000.000000 198.000000 692.000000
997.000000 1165.000000 2001.000000
995.000000 195.000000 1152.000000
997.000000 1748.000000 1478.000000
998.000000 368.000000 978.000000
1005.000000 519.000000 1411.000000
1011.000000 1791.000000 117.000000
1001.000000 855.000000 2001.000000
994.000000 1201.000000 508.000000
1002.000000 1496.000000 1807.000000
999.000000 1004.000000 1619.000000
1005.000000 1476.000000 182.000000
1007.000000 1824.000000 542.000000
1000.000000 1027.000000 873.000000
992.000000 318.000000 213.000000
1001.000000 528.000000 10.000000
1001.000000 1.000000 770.000000
1003.000000 1.000000 1074.000000
1003.000000 1002.000000 1411.000000
1002.000000 1409.000000 866.000000
1006.000000 1845.000000 792.000000
999.000000 1382.000000 1087.000000
1000.000000 278.000000 1719.000000
1001.000000 504.000000 1833.000000
1006.000000 893.000000 131.000000
1001.000000 1386.000000 1487.000000
1011.000000 1670.000000 271.000000
999.000000 119.000000 1833.000000
1005.000000 803.000000 1103.000000
1004.000000 721.000000 220.000000
1001.000000 1713.000000 1699.000000
1001.000000 2001.000000 200.000000
997.000000 1013.000000 470.000000
1003.000000 2001.000000 466.000000
998.000000 1880.000000 1842.000000
997.000000 1199.000000 770.000000
1003.000000 1.000000 1474.000000
999.000000 1574.000000 1413.000000
1007.000000 1742.000000 1067.000000
1002.000000 1521.000000 578.000000
996.000000 166.000000 106.000000
1002.000000 2001.000000 1498.000000
1006.000000 629.000000 1561.000000
1001.000000 486.000000 399.000000
998.000000 479.000000 604.000000
1000.000000 1892.000000 1168.000000
997.000000 155.000000 464.000000
999.000000 1065.000000 1049.000000
1005.000000 1684.000000 868.000000
1001.000000 1033.000000 242.000000
998.000000 334.000000 805.000000
1006.000000 812.000000 495.000000
1000.000000 1340.000000 401.000000
1002.000000 864.000000 1724.000000
1003.000000 685.000000 797.000000
999.000000 1558.000000 1176.000000
1006.000000 1681.000000 444.000000
999.000000 1168.000000 120.000000
999.000000 1272.000000 1360.000000
1004.000000 841.000000 1357.000000
1003.000000 1824.000000 2001.000000
1001.000000 1393.000000 1655.000000
1004.000000 1567.000000 2001.000000
1003.000000 2001.000000 848.000000
1001.000000 178.000000 2001.000000
998.000000 464.000000 2001.000000
1002.000000 1.000000 169.000000
1003.000000 1514.000000 741.000000
995.000000 316.000000 1558.000000
1001.000000 1.000000 397.000000
1004.000000 1845.000000 1349.000000
1006.000000 636.000000 352.000000
997.000000 1118.000000 1726.000000
999.000000 1011.000000 1988.000000
1000.000000 692.000000 1420.000000
1004.000000 575.000000 1174.000000
1005.000000 743.000000 1896.000000
1006.000000 1322.000000 189.000000
995.000000 267.000000 359.000000
1003.000000 620.000000 660.000000
1001.000000 904.000000 785.000000
998.000000 1125.000000 1324.000000
1000.000000 383.000000 1349.000000
999.000000 151.000000 1295.000000
997.000000 341.000000 656.000000
1005.000000 922.000000 1016.000000
992.000000 1284.000000 1912.000000
1002.000000 2001.000000 1760.000000
1000.000000 426.000000 115.000000
1001.000000 1.000000 928.000000
1003.000000 1.000000 1751.000000
1004.000000 636.000000 104.000000
1003.000000 924.000000 582.000000
1008.000000 1612.000000 142.000000
1001.000000 140.000000 1505.000000
1001.000000 1460.000000 41.000000
994.000000 1150.000000 1862.000000
1000.000000 495.000000 922.000000
997.000000 1391.000000 531.000000
994.000000 1257.000000 1628.000000
999.000000 468.000000 1074.000000
991.000000 325.000000 1107.000000
998.000000 294.000000 1246.000000
1002.000000 2001.000000 1087.000000
1003.000000 1860.000000 1.000000
998.000000 1094.000000 363.000000
1002.000000 873.000000 1867.000000
999.000000 1547.000000 870.000000
1000.000000 1226.000000 640.000000
1002.000000 1994.000000 332.000000
1004.000000 1728.000000 1.000000
1002.000000 870.000000 1.000000
1008.000000 564.000000 1713.000000
1003.000000 689.000000 928.000000
1000.000000 1871.000000 1523.000000
1003.000000 1422.000000 300.000000
1000.000000 844.000000 1226.000000
1001.000000 1871.000000 665.000000
999.000000 405.000000 1749.000000
991.000000 227.000000 1022.000000
1006.000000 1786.000000 946.000000
1005.000000 756.000000 1644.000000
999.000000 434.000000 1507.000000
999.000000 73.000000 665.000000
1004.000000 761.000000 379.000000
996.000000 417.000000 292.000000
1003.000000 1621.000000 1786.000000
994.000000 126.000000 797.000000
998.000000 227.000000 569.000000
995.000000 1340.000000 1208.000000
1005.000000 73.000000 1181.000000
1003.000000 1257.000000 1080.000000
1011.000000 1876.000000 209.000000
1001.000000 933.000000 1516.000000
1001.000000 517.000000 1286.000000
1004.000000 1646.000000 564.000000
1006.000000 1675.000000 1579.000000
1003.000000 620.000000 1876.000000
1001.000000 1092.000000 1170.000000
999.000000 680.000000 1109.000000
996.000000 1375.000000 1829.000000
1001.000000 3.000000 1874.000000
998.000000 1601.000000 1293.000000
998.000000 1199.000000 1.000000
1002.000000 1016.000000 120.000000
1001.000000 1344.000000 971.000000
997.000000 1286.000000 857.000000
992.000000 269.000000 908.000000
997.000000 1067.000000 1514.000000
1001.000000 1695.000000 1369.000000
998.000000 211.000000 1617.000000
1005.000000 1550.000000 276.000000
1001.000000 238.000000 1831.000000
1006.000000 729.000000 580.000000
999.000000 776.000000 113.000000
1002.000000 1789.000000 1608.000000
999.000000 88.000000 1395.000000
997.000000 1094.000000 557.000000
1004.000000 1923.000000 102.000000
998.000000 117.000000 1062.000000
1006.000000 1771.000000 1800.000000
1002.000000 1992.000000 1876.000000
997.000000 1143.000000 873.000000
997.000000 1132.000000 1610.000000
998.000000 1082.000000 770.000000
1004.000000 1795.000000 428.000000
1000.000000 1938.000000 562.000000
1001.000000 1482.000000 1921.000000
1001.000000 5.000000 283.000000
998.000000 164.000000 1728.000000
1001.000000 1458.000000 969.000000
1003.000000 593.000000 864.000000
1002.000000 834.000000 227.000000
1001.000000 126.000000 1.000000
1004.000000 1498.000000 1496.000000
996.000000 1228.000000 397.000000
1000.000000 278.000000 108.000000
1002.000000 2001.000000 1201.000000
999.000000 944.000000 1313.000000
995.000000 204.000000 211.000000
999.000000 1634.000000 1094.000000
1002.000000 613.000000 1342.000000
1003.000000 879.000000 1614.000000
1004.000000 1498.000000 1695.000000
1000.000000 1447.000000 1179.000000
999.000000 374.000000 394.000000
1003.000000 1713.000000 2001.000000
1006.000000 1675.000000 978.000000
1002.000000 975.000000 1726.000000
1008.000000 794.000000 781.000000
1000.000000 2001.000000 1608.000000
1008.000000 1938.000000 1407.000000
1001.000000 908.000000 439.000000
998.000000 524.000000 502.000000
1010.000000 1780.000000 262.000000
1002.000000 984.000000 361.000000
1005.000000 1766.000000 636.000000
999.000000 1614.000000 783.000000
1000.000000 113.000000 564.000000
1000.000000 1947.000000 754.000000
1006.000000 1737.000000 772.000000
1001.000000 1492.000000 1080.000000
1002.000000 1585.000000 1889.000000
1000.000000 1.000000 1583.000000
1003.000000 1574.000000 484.000000
1001.000000 1353.000000 772.000000
1001.000000 1313.000000 296.000000
1002.000000 926.000000 908.000000
998.000000 1451.000000 1400.000000
998.000000 437.000000 703.000000
1003.000000 1784.000000 1165.000000
995.000000 345.000000 1449.000000
1006.000000 763.000000 1004.000000
1005.000000 790.000000 1800.000000
1001.000000 908.000000 1121.000000
1007.000000 1900.000000 435.000000
995.000000 423.000000 8.000000
1002.000000 738.000000 2001.000000
1004.000000 1847.000000 1071.000000
1001.000000 531.000000 117.000000
996.000000 426.000000 1903.000000
1003.000000 1900.000000 881.000000
1005.000000 1617.000000 361.000000
1004.000000 940.000000 687.000000
998.000000 1284.000000 1465.000000
993.000000 229.000000 812.000000
1002.000000 95.000000 1934.000000
1004.000000 537.000000 1514.000000
1002.000000 1610.000000 1681.000000
1002.000000 631.000000 1.000000
997.000000 1123.000000 1427.000000
996.000000 358.000000 1652.000000
995.000000 1293.000000 562.000000
1004.000000 1132.000000 216.000000
1005.000000 1907.000000 1941.000000
1001.000000 1815.000000 1708.000000
999.000000 428.000000 844.000000
1003.000000 1909.000000 1270.000000
1007.000000 1798.000000 1903.000000
1008.000000 1708.000000 175.000000
991.000000 66.000000 91.000000
1004.000000 1391.000000 115.000000
1003.000000 653.000000 1659.000000
998.000000 1156.000000 1092.000000
1004.000000 1603.000000 1509.000000
1005.000000 624.000000 251.000000
999.000000 1458.000000 656.000000
1007.000000 1726.000000 354.000000
997.000000 933.000000 247.000000
1003.000000 535.000000 1929.000000
997.000000 102.000000 184.000000
1000.000000 1138.000000 687.000000
1000.000000 2001.000000 949.000000
1005.000000 1574.000000 662.000000
1000.000000 336.000000 1820.000000
1002.000000 57.000000 479.000000
1002.000000 222.000000 23.000000
999.000000 99.000000 383.000000
996.000000 1431.000000 441.000000
995.000000 1116.000000 459.000000
999.000000 1123.000000 969.000000
1002.000000 1038.000000 1279.000000
1002.000000 1337.000000 1572.000000
1005.000000 712.000000 703.000000
998.000000 428.000000 479.000000
1001.000000 1009.000000 969.000000
1000.000000 544.000000 318.000000
1005.000000 745.000000 1181.000000
1000.000000 1905.000000 1749.000000
999.000000 1065.000000 1907.000000
1005.000000 957.000000 44.000000
1001.000000 1813.000000 1257.000000
1007.000000 721.000000 466.000000
1000.000000 1451.000000 1579.000000
1003.000000 712.000000 1514.000000
1004.000000 1263.000000 113.000000
999.000000 274.000000 2001.000000
1001.000000 236.000000 1507.000000
1001.000000 864.000000 1449.000000
1000.000000 600.000000 754.000000
1000.000000 388.000000 573.000000
995.000000 249.000000 452.000000
1006.000000 555.000000 1619.000000
998.000000 370.000000 1999.000000
1006.000000 1731.000000 524.000000
999.000000 531.000000 689.000000
1000.000000 1418.000000 1746.000000
1001.000000 582.000000 428.000000
1011.000000 1686.000000 84.000000
998.000000 928.000000 1943.000000
996.000000 1277.000000 718.000000
1001.000000 1357.000000 1398.000000
996.000000 1516.000000 1333.000000
1000.000000 184.000000 1907.000000
999.000000 1259.000000 2001.000000
1001.000000 604.000000 1449.000000
1002.000000 1650.000000 1185.000000
1004.000000 747.000000 1346.000000
1002.000000 573.000000 580.000000
1003.000000 1004.000000 1118.000000
1003.000000 1543.000000 81.000000
1003.000000 50.000000 850.000000
1005.000000 1228.000000 198.000000
1007.000000 1831.000000 1440.000000
1001.000000 283.000000 727.000000
1010.000000 1777.000000 855.000000
1006.000000 832.000000 584.000000
1000.000000 240.000000 1320.000000
999.000000 1340.000000 1299.000000
999.000000 1210.000000 1290.000000
995.000000 75.000000 980.000000
1001.000000 439.000000 204.000000
1006.000000 991.000000 761.000000
994.000000 1205.000000 1702.000000
998.000000 1284.000000 473.000000
1002.000000 1.000000 1375.000000
1005.000000 774.000000 292.000000
1000.000000 1505.000000 1246.000000
1005.000000 747.000000 859.000000
1002.000000 609.000000 1789.000000
1003.000000 776.000000 1445.000000
1001.000000 1121.000000 46.000000
999.000000 1371.000000 1918.000000
996.000000 180.000000 350.000000
1001.000000 919.000000 1793.000000
999.000000 354.000000 890.000000
1003.000000 607.000000 1255.000000
996.000000 1315.000000 1693.000000
1003.000000 1007.000000 557.000000
996.000000 1440.000000 785.000000
1003.000000 1210.000000 1420.000000
996.000000 432.000000 1420.000000
1005.000000 1927.000000 278.000000
1002.000000 1802.000000 716.000000
996.000000 329.000000 298.000000
1000.000000 1666.000000 1451.000000
1005.000000 678.000000 1013.000000
997.000000 1082.000000 1804.000000
1005.000000 1639.000000 1956.000000
998.000000 1183.000000 1784.000000
1001.000000 14.000000 1668.000000
998.000000 1138.000000 1241.000000
1001.000000 493.000000 1156.000000
999.000000 1608.000000 928.000000
1004.000000 660.000000 1190.000000
996.000000 211.000000 1234.000000
1004.000000 551.000000 1094.000000
1004.000000 81.000000 1722.000000
1000.000000 1492.000000 499.000000
1000.000000 481.000000 1713.000000
1005.000000 1400.000000 218.000000
1001.000000 450.000000 993.000000
999.000000 169.000000 1378.000000
1004.000000 1764.000000 1324.000000
1003.000000 354.000000 75.000000
994.000000 1203.000000 1927.000000
1004.000000 841.000000 1029.000000
1001.000000 434.000000 1284.000000
993.000000 1237.000000 1845.000000
1004.000000 595.000000 175.000000
993.000000 247.000000 280.000000
1004.000000 922.000000 1391.000000
1002.000000 817.000000 1929.000000
1000.000000 307.000000 582.000000
997.000000 397.000000 1581.000000
1003.000000 79.000000 1558.000000
1002.000000 1261.000000 1545.000000
1004.000000 1974.000000 1684.000000
995.000000 388.000000 1056.000000
999.000000 1047.000000 1688.000000
1004.000000 573.000000 942.000000
1004.000000 1092.000000 146.000000
1000.000000 692.000000 1833.000000
1004.000000 694.000000 296.000000
1003.000000 1485.000000 2001.000000
998.000000 2001.000000 120.000000
997.000000 1170.000000 582.000000
1005.000000 765.000000 1724.000000
1003.000000 779.000000 1273.000000
993.000000 345.000000 1185.000000
998.000000 79.000000 1261.000000
1001.000000 1391.000000 1.000000
994.000000 307.000000 1029.000000
1001.000000 837.000000 403.000000
999.000000 1279.000000 1156.000000
1006.000000 1608.000000 222.000000
1001.000000 674.000000 1934.000000
1002.000000 1929.000000 1576.000000
1000.000000 363.000000 732.000000
1005.000000 1923.000000 1096.000000
995.000000 262.000000 647.000000
1006.000000 651.000000 587.000000
998.000000 1089.000000 1983.000000
1003.000000 703.000000 144.000000
996.000000 426.000000 1824.000000
1003.000000 1.000000 1152.000000
1005.000000 868.000000 716.000000
999.000000 307.000000 1364.000000
1003.000000 1552.000000 1751.000000
998.000000 164.000000 622.000000
998.000000 1098.000000 285.000000
1001.000000 946.000000 508.000000
1005.000000 1695.000000 1813.000000
1002.000000 960.000000 173.000000
1002.000000 1.000000 692.000000
999.000000 846.000000 837.000000
997.000000 1277.000000 1252.000000
992.000000 271.000000 1163.000000
1005.000000 700.000000 1590.000000
1002.000000 843.000000 73.000000
1005.000000 1764.000000 1402.000000
1005.000000 468.000000 1353.000000
1002.000000 1056.000000 1357.000000
1002.000000 1795.000000 41.000000
1002.000000 1710.000000 1136.000000
1004.000000 960.000000 837.000000
998.000000 73.000000 741.000000
999.000000 283.000000 1641.000000
993.000000 414.000000 1127.000000
1000.000000 703.000000 68.000000
1000.000000 940.000000 1659.000000
1002.000000 46.000000 1811.000000
998.000000 1212.000000 844.000000
999.000000 1168.000000 352.000000
995.000000 1279.000000 1009.000000
1002.000000 555.000000 2001.000000
1005.000000 879.000000 642.000000
1007.000000 660.000000 423.000000
993.000000 155.000000 998.000000
1002.000000 361.000000 153.000000
995.000000 1447.000000 582.000000
1007.000000 1802.000000 191.000000
995.000000 1411.000000 716.000000
996.000000 1199.000000 1031.000000
1000.000000 75.000000 1469.000000
1003.000000 1478.000000 897.000000
1001.000000 991.000000 1045.000000
994.000000 1342.000000 1762.000000
999.000000 421.000000 924.000000
1000.000000 519.000000 1020.000000
1000.000000 140.000000 1212.000000
1003.000000 1798.000000 1534.000000
998.000000 1947.000000 1811.000000
991.000000 251.000000 1092.000000
1002.000000 873.000000 960.000000
1003.000000 1965.000000 401.000000
1001.000000 1976.000000 1018.000000
1000.000000 361.000000 1277.000000
1002.000000 1000.000000 1485.000000
1006.000000 1492.000000 321.000000
1002.000000 1402.000000 1016.000000
998.000000 1442.000000 1858.000000
1000.000000 1407.000000 372.000000
1004.000000 1521.000000 1.000000
1003.000000 1889.000000 508.000000
999.000000 479.000000 64.000000
1006.000000 1695.000000 618.000000
1001.000000 991.000000 1905.000000
1001.000000 149.000000 1579.000000
999.000000 1561.000000 1103.000000
1001.000000 1328.000000 1979.000000
1004.000000 1929.000000 1480.000000
994.000000 1199.000000 1583.000000
1004.000000 1795.000000 1018.000000
1003.000000 484.000000 1563.000000
1000.000000 5.000000 1002.000000
1005.000000 1860.000000 137.000000
1002.000000 913.000000 1248.000000
1000.000000 1840.000000 1780.000000
1008.000000 1614.000000 70.000000
996.000000 584.000000 55.000000
1004.000000 1550.000000 178.000000
1000.000000 1344.000000 899.000000
1004.000000 877.000000 528.000000
1001.000000 522.000000 855.000000
992.000000 171.000000 855.000000
1000.000000 251.000000 1932.000000
1006.000000 1874.000000 593.000000
999.000000 184.000000 1449.000000
991.000000 211.000000 951.000000
1005.000000 980.000000 627.000000
998.000000 126.000000 1134.000000
1004.000000 1925.000000 30.000000
1003.000000 1478.000000 110.000000
1000.000000 57.000000 1331.000000
1002.000000 826.000000 1664.000000
1001.000000 439.000000 774.000000
995.000000 1357.000000 593.000000
1003.000000 1505.000000 812.000000
999.000000 1623.000000 1362.000000
1003.000000 1934.000000 633.000000
997.000000 1355.000000 470.000000
998.000000 1268.000000 788.000000
1005.000000 1856.000000 937.000000
1002.000000 1860.000000 1594.000000
1003.000000 1932.000000 1337.000000
998.000000 1534.000000 940.000000
1007.000000 1936.000000 171.000000
998.000000 486.000000 278.000000
999.000000 44.000000 225.000000
998.000000 1065.000000 1585.000000
1007.000000 741.000000 1071.000000
1003.000000 1038.000000 405.000000
1001.000000 1670.000000 1302.000000
999.000000 1306.000000 1838.000000
1007.000000 1485.000000 251.000000
995.000000 417.000000 636.000000
1001.000000 61.000000 1109.000000
999.000000 1103.000000 627.000000
1002.000000 848.000000 1156.000000
1000.000000 942.000000 1585.000000
1004.000000 808.000000 1597.000000
1006.000000 1661.000000 19.000000
998.000000 1295.000000 633.000000
1004.000000 1722.000000 1630.000000
1004.000000 781.000000 182.000000
998.000000 61.000000 325.000000
1000.000000 1033.000000 312.000000
994.000000 1132.000000 1929.000000
1000.000000 1617.000000 852.000000
1008.000000 1793.000000 332.000000
996.000000 314.000000 428.000000
1004.000000 662.000000 864.000000
1000.000000 224.000000 1762.000000
993.000000 1281.000000 926.000000
991.000000 184.000000 1076.000000
997.000000 1085.000000 910.000000
1006.000000 1563.000000 1824.000000
994.000000 184.000000 759.000000
1000.000000 1188.000000 1355.000000
1000.000000 1255.000000 334.000000
1007.000000 1911.000000 812.000000
1001.000000 2001.000000 535.000000
1002.000000 81.000000 2001.000000
999.000000 218.000000 1686.000000
995.000000 131.000000 705.000000
997.000000 464.000000 537.000000
999.000000 1404.000000 1232.000000
999.000000 1212.000000 68.000000
1003.000000 1882.000000 734.000000
1003.000000 2001.000000 1382.000000
1001.000000 1719.000000 926.000000
996.000000 1141.000000 805.000000
995.000000 262.000000 175.000000
997.000000 1.000000 73.000000
1008.000000 1737.000000 698.000000
1002.000000 526.000000 1769.000000
1000.000000 680.000000 1333.000000
993.000000 1129.000000 1541.000000
999.000000 522.000000 1217.000000
1005.000000 546.000000 1349.000000
1003.000000 756.000000 937.000000
1004.000000 1617.000000 1614.000000
1001.000000 940.000000 1860.000000
1003.000000 618.000000 1083.000000
1000.000000 873.000000 1547.000000
1002.000000 19.000000 625.000000
994.000000 345.000000 1719.000000
1002.000000 1612.000000 428.000000
999.000000 432.000000 359.000000
998.000000 1036.000000 1755.000000
1003.000000 803.000000 19.000000
1004.000000 1865.000000 68.000000
995.000000 79.000000 913.000000
1001.000000 861.000000 1293.000000
996.000000 1002.000000 1552.000000
1000.000000 1384.000000 1156.000000
995.000000 1210.000000 1132.000000
996.000000 1203.000000 703.000000
1001.000000 17.000000 1219.000000
996.000000 171.000000 531.000000
1000.000000 1040.000000 1212.000000
1008.000000 1742.000000 1941.000000
996.000000 157.000000 1659.000000
1005.000000 1679.000000 1045.000000
1002.000000 1058.000000 68.000000
1006.000000 696.000000 638.000000
1006.000000 1847.000000 269.000000
1007.000000 1690.000000 1514.000000
1003.000000 602.000000 1941.000000
1000.000000 1058.000000 1447.000000
1000.000000 368.000000 1516.000000
1004.000000 1641.000000 1853.000000
1001.000000 1641.000000 497.000000
1001.000000 1402.000000 933.000000
1000.000000 1585.000000 596.000000
1000.000000 419.000000 1684.000000
995.000000 1181.000000 444.000000
996.000000 381.000000 236.000000
1006.000000 1929.000000 345.000000
1002.000000 1085.000000 841.000000
998.000000 269.000000 517.000000
1007.000000 1677.000000 801.000000
1006.000000 629.000000 1724.000000
1001.000000 1322.000000 1060.000000
1000.000000 1509.000000 1431.000000
1006.000000 488.000000 1469.000000
1005.000000 801.000000 1865.000000
1000.000000 1992.000000 265.000000
1002.000000 660.000000 196.000000
1001.000000 1279.000000 240.000000
1002.000000 1967.000000 1145.000000
1004.000000 1608.000000 718.000000
1001.000000 1492.000000 1630.000000
1006.000000 1740.000000 1565.000000
1003.000000 647.000000 1498.000000
1003.000000 1599.000000 1228.000000
996.000000 303.000000 964.000000
996.000000 1503.000000 1016.000000
1003.000000 893.000000 196.000000
1005.000000 855.000000 1804.000000
1003.000000 30.000000 1934.000000
1001.000000 68.000000 1874.000000
1007.000000 1328.000000 99.000000
1002.000000 1655.000000 1728.000000
998.000000 942.000000 312.000000
1006.000000 633.000000 966.000000
998.000000 198.000000 412.000000
999.000000 178.000000 1807.000000
1001.000000 300.000000 1496.000000
998.000000 1129.000000 1033.000000
1002.000000 1543.000000 1941.000000
1005.000000 1556.000000 341.000000
1005.000000 953.000000 108.000000
995.000000 182.000000 274.000000
1004.000000 814.000000 343.000000
999.000000 1263.000000 3.000000
1000.000000 1156.000000 1168.000000
1000.000000 944.000000 1451.000000
1003.000000 709.000000 1690.000000
995.000000 1404.000000 1353.000000
1000.000000 1503.000000 1143.000000
1004.000000 698.000000 368.000000
996.000000 285.000000 846.000000
1005.000000 1929.000000 2001.000000
1006.000000 694.000000 526.000000
1002.000000 1938.000000 1212.000000
998.000000 490.000000 166.000000
1002.000000 1961.000000 899.000000
1007.000000 1786.000000 491.000000
1007.000000 1733.000000 1004.000000
996.000000 1440.000000 1116.000000
999.000000 285.000000 1782.000000
1006.000000 1610.000000 298.000000
1002.000000 906.000000 1185.000000
1003.000000 557.000000 1869.000000
1007.000000 1840.000000 861.000000
1000.000000 253.000000 1568.000000
1001.000000 57.000000 1042.000000
1000.000000 1521.000000 1871.000000
1009.000000 1751.000000 1860.000000
1006.000000 781.000000 439.000000
1001.000000 971.000000 423.000000
998.000000 1094.000000 1107.000000
997.000000 370.000000 1874.000000
1002.000000 2001.000000 721.000000
1005.000000 1970.000000 1936.000000
1000.000000 1150.000000 1670.000000
998.000000 1353.000000 837.000000
999.000000 1230.000000 564.000000
1000.000000 832.000000 144.000000
1002.000000 1793.000000 1103.000000
1010.000000 1722.000000 236.000000
1002.000000 651.000000 718.000000
1005.000000 1634.000000 636.000000
996.000000 70.000000 28.000000
1007.000000 1849.000000 397.000000
998.000000 1836.000000 1199.000000
999.000000 1550.000000 1661.000000
1000.000000 1445.000000 1462.000000
1004.000000 1031.000000 810.000000
1004.000000 1038.000000 180.000000
1000.000000 2001.000000 785.000000
997.000000 924.000000 379.000000
1003.000000 1818.000000 1842.000000
1007.000000 756.000000 1563.000000
999.000000 464.000000 1773.000000
1007.000000 756.000000 522.000000
1002.000000 1929.000000 1880.000000
1000.000000 1395.000000 1550.000000
1000.000000 1328.000000 1509.000000
1001.000000 119.000000 1771.000000
1007.000000 1769.000000 573.000000
998.000000 1069.000000 499.000000
999.000000 1333.000000 1634.000000
1005.000000 1860.000000 1900.000000
1004.000000 1845.000000 464.000000
1008.000000 772.000000 723.000000
999.000000 1331.000000 1123.000000
1004.000000 995.000000 1349.000000
1001.000000 948.000000 2001.000000
1001.000000 1547.000000 1534.000000
1001.000000 1988.000000 598.000000
1003.000000 1666.000000 1655.000000
1001.000000 566.000000 808.000000
1000.000000 289.000000 1865.000000
1004.000000 1929.000000 694.000000
1003.000000 877.000000 271.000000
996.000000 110.000000 859.000000
999.000000 486.000000 1892.000000
1004.000000 1040.000000 723.000000
1000.000000 544.000000 379.000000
1003.000000 1514.000000 680.000000
1006.000000 1760.000000 1740.000000
1003.000000 1836.000000 1650.000000
996.000000 1197.000000 904.000000
999.000000 1366.000000 327.000000
1007.000000 779.000000 616.000000
997.000000 122.000000 64.000000
1004.000000 1950.000000 502.000000
1002.000000 1771.000000 1666.000000
996.000000 1141.000000 517.000000
1005.000000 1735.000000 414.000000
999.000000 1556.000000 1471.000000
1003.000000 1619.000000 1033.000000
1005.000000 1878.000000 1400.000000
1002.000000 535.000000 627.000000
1003.000000 627.000000 814.000000
1000.000000 1427.000000 1947.000000
1006.000000 1346.000000 245.000000
1001.000000 222.000000 84.000000
998.000000 1974.000000 66.000000
995.000000 160.000000 166.000000
1009.000000 1746.000000 77.000000
1003.000000 636.000000 1398.000000
1007.000000 814.000000 971.000000
999.000000 278.000000 46.000000
1004.000000 1047.000000 602.000000
997.000000 142.000000 229.000000
1008.000000 1670.000000 332.000000
1001.000000 1979.000000 1257.000000
1003.000000 1.000000 457.000000
1005.000000 515.000000 1664.000000
998.000000 1406.000000 627.000000
998.000000 430.000000 419.000000
1002.000000 26.000000 1529.000000
996.000000 488.000000 339.000000
1001.000000 307.000000 1304.000000
1001.000000 1731.000000 1192.000000
1007.000000 861.000000 1085.000000
1001.000000 57.000000 540.000000
1001.000000 1067.000000 989.000000
1001.000000 797.000000 1985.000000
1003.000000 1988.000000 1440.000000
1004.000000 980.000000 1264.000000
1002.000000 1657.000000 1244.000000
994.000000 417.000000 1963.000000
1002.000000 902.000000 66.000000
1003.000000 1845.000000 1132.000000
1005.000000 1851.000000 998.000000
999.000000 1138.000000 403.000000
996.000000 115.000000 1342.000000
995.000000 374.000000 455.000000
