ply
format ascii 1.0
element vertex 609
property float x
property float y
property float z
end_header
928.000000 1229.000000 1220.000000
1150.000000 318.000000 393.000000
933.000000 113.000000 1506.000000
1185.000000 1183.000000 394.000000
1002.000000 2000.000000 1054.000000
828.000000 570.000000 973.000000
1142.000000 952.000000 848.000000
1117.000000 186.000000 1059.000000
1092.000000 795.000000 1287.000000
848.000000 1263.000000 690.000000
1021.000000 1588.000000 1038.000000
1173.000000 474.000000 772.000000
816.000000 425.000000 592.000000
928.000000 449.000000 1323.000000
819.000000 935.000000 1025.000000
847.000000 1094.000000 390.000000
1176.000000 520.000000 1106.000000
1196.000000 317.000000 1479.000000
863.000000 262.000000 871.000000
1110.000000 1254.000000 955.000000
1173.000000 1060.000000 1174.000000
1144.000000 1288.000000 665.000000
995.000000 707.000000 775.000000
877.000000 178.000000 1226.000000
830.000000 1205.000000 962.000000
841.000000 725.000000 1200.000000
1128.000000 109.000000 1318.000000
894.000000 973.000000 1281.000000
893.000000 1019.000000 785.000000
1182.000000 774.000000 1039.000000
808.000000 319.000000 1488.000000
808.000000 358.000000 1083.000000
887.000000 320.000000 390.000000
1107.000000 493.000000 546.000000
1174.000000 327.000000 1242.000000
938.000000 481.000000 782.000000
1095.000000 266.000000 842.000000
1061.000000 1387.000000 1132.000000
986.000000 1789.000000 1128.000000
1084.000000 584.000000 1284.000000
1074.000000 1100.000000 719.000000
843.000000 768.000000 904.000000
1155.000000 642.000000 886.000000
892.000000 1265.000000 491.000000
1204.000000 356.000000 989.000000
946.000000 16.000000 1328.000000
921.000000 161.000000 1033.000000
1005.000000 297.000000 1527.000000
832.000000 531.000000 1172.000000
1196.000000 1082.000000 982.000000
817.000000 1101.000000 1126.000000
1035.000000 1094.000000 1294.000000
1115.000000 151.000000 1497.000000
986.000000 1140.000000 884.000000
1104.000000 1223.000000 1191.000000
1104.000000 357.000000 659.000000
1092.000000 411.000000 1372.000000
803.000000 426.000000 878.000000
993.000000 879.000000 795.000000
819.000000 316.000000 1315.000000
1188.000000 1166.000000 830.000000
1168.000000 889.000000 1165.000000
963.000000 1282.000000 1039.000000
1097.000000 1188.000000 538.000000
873.000000 339.000000 723.000000
1164.000000 685.000000 1178.000000
831.000000 167.000000 1387.000000
1030.000000 126.000000 1186.000000
921.000000 610.000000 1287.000000
886.000000 471.000000 452.000000
813.000000 1157.000000 809.000000
1124.000000 791.000000 833.000000
932.000000 816.000000 1297.000000
875.000000 620.000000 829.000000
1174.000000 241.000000 1615.000000
1181.000000 927.000000 1003.000000
819.000000 709.000000 1046.000000
836.000000 880.000000 1171.000000
808.000000 1054.000000 925.000000
1095.000000 951.000000 1289.000000
1171.000000 503.000000 952.000000
925.000000 1132.000000 688.000000
951.000000 1491.000000 1132.000000
835.000000 238.000000 1612.000000
1059.000000 570.000000 778.000000
848.000000 914.000000 880.000000
1035.000000 170.000000 937.000000
1191.000000 236.000000 1357.000000
1177.000000 1194.000000 1069.000000
1049.000000 392.000000 785.000000
1142.000000 466.000000 1232.000000
1040.000000 56.000000 1425.000000
1069.000000 428.000000 426.000000
1182.000000 635.000000 1024.000000
1200.000000 361.000000 849.000000
926.000000 378.000000 1444.000000
853.000000 1233.000000 1105.000000
1080.000000 1227.000000 772.000000
1007.000000 1868.000000 1018.000000
1026.000000 1018.000000 819.000000
1178.000000 297.000000 1109.000000
938.000000 435.000000 652.000000
836.000000 400.000000 1209.000000
879.000000 1106.000000 1249.000000
850.000000 1177.000000 585.000000
1139.000000 204.000000 1200.000000
828.000000 252.000000 1002.000000
929.000000 1218.000000 788.000000
939.000000 1342.000000 1154.000000
824.000000 461.000000 720.000000
1001.000000 1716.000000 1021.000000
989.000000 1660.000000 1140.000000
1163.000000 1161.000000 649.000000
1086.000000 1106.000000 421.000000
1160.000000 242.000000 951.000000
1014.000000 696.000000 1309.000000
974.000000 298.000000 824.000000
1176.000000 459.000000 645.000000
847.000000 247.000000 1126.000000
1085.000000 1277.000000 1078.000000
820.000000 479.000000 1057.000000
1159.000000 389.000000 502.000000
908.000000 790.000000 800.000000
866.000000 213.000000 1494.000000
819.000000 1209.000000 413.000000
938.000000 1241.000000 928.000000
1157.000000 1058.000000 794.000000
832.000000 998.000000 1181.000000
803.000000 390.000000 433.000000
822.000000 824.000000 1068.000000
1167.000000 834.000000 933.000000
1185.000000 409.000000 1140.000000
919.000000 404.000000 541.000000
1022.000000 1299.000000 1222.000000
988.000000 915.000000 1312.000000
1188.000000 367.000000 736.000000
1086.000000 352.000000 1469.000000
824.000000 601.000000 1083.000000
798.000000 358.000000 970.000000
1016.000000 185.000000 1541.000000
1140.000000 1261.000000 463.000000
1050.000000 1486.000000 1078.000000
922.000000 1167.000000 430.000000
1036.000000 59.000000 1277.000000
1033.000000 487.000000 1314.000000
1189.000000 1016.000000 1072.000000
1021.000000 131.000000 1074.000000
897.000000 79.000000 1406.000000
1081.000000 460.000000 703.000000
914.000000 1266.000000 601.000000
1157.000000 575.000000 1200.000000
927.000000 188.000000 924.000000
1099.000000 687.000000 802.000000
808.000000 1113.000000 1017.000000
1175.000000 424.000000 400.000000
1024.000000 1199.000000 1265.000000
973.000000 1403.000000 1070.000000
1001.000000 1912.000000 1118.000000
1141.000000 540.000000 852.000000
859.000000 515.000000 850.000000
1124.000000 1129.000000 1241.000000
936.000000 148.000000 1139.000000
1069.000000 1210.000000 666.000000
1172.000000 342.000000 1354.000000
889.000000 103.000000 1302.000000
1160.000000 789.000000 1202.000000
822.000000 1160.000000 701.000000
836.000000 663.000000 920.000000
958.000000 1107.000000 786.000000
818.000000 342.000000 814.000000
1184.000000 1178.000000 938.000000
1113.000000 689.000000 1271.000000
1171.000000 728.000000 945.000000
1108.000000 283.000000 1545.000000
904.000000 716.000000 1284.000000
1026.000000 1563.000000 1146.000000
961.000000 607.000000 772.000000
879.000000 499.000000 554.000000
857.000000 1234.000000 863.000000
828.000000 851.000000 964.000000
1060.000000 1212.000000 875.000000
885.000000 516.000000 1259.000000
1190.000000 447.000000 1036.000000
829.000000 298.000000 1215.000000
853.000000 623.000000 1210.000000
1185.000000 1033.000000 892.000000
1175.000000 1237.000000 581.000000
1174.000000 1208.000000 739.000000
1083.000000 397.000000 568.000000
905.000000 304.000000 1513.000000
1160.000000 153.000000 1405.000000
817.000000 265.000000 1402.000000
821.000000 217.000000 1299.000000
943.000000 382.000000 778.000000
981.000000 1013.000000 1309.000000
1091.000000 880.000000 802.000000
812.000000 1025.000000 1064.000000
852.000000 1175.000000 1185.000000
995.000000 422.000000 1389.000000
1039.000000 794.000000 782.000000
866.000000 384.000000 1368.000000
1188.000000 455.000000 869.000000
1169.000000 1157.000000 1160.000000
880.000000 360.000000 629.000000
1155.000000 974.000000 1217.000000
938.000000 397.000000 419.000000
821.000000 474.000000 961.000000
1157.000000 231.000000 1462.000000
909.000000 925.000000 807.000000
946.000000 1580.000000 1097.000000
858.000000 813.000000 1235.000000
1043.000000 1145.000000 808.000000
987.000000 1419.000000 1182.000000
1180.000000 862.000000 1074.000000
823.000000 1066.000000 832.000000
1048.000000 1792.000000 1057.000000
1092.000000 1199.000000 408.000000
1088.000000 28.000000 1349.000000
1132.000000 873.000000 1250.000000
1173.000000 613.000000 1115.000000
1114.000000 1041.000000 1273.000000
949.000000 119.000000 1232.000000
855.000000 1180.000000 493.000000
1087.000000 1262.000000 592.000000
1018.000000 1247.000000 973.000000
1014.000000 230.000000 871.000000
876.000000 713.000000 838.000000
1115.000000 329.000000 778.000000
930.000000 1223.000000 696.000000
1054.000000 1666.000000 1076.000000
1025.000000 103.000000 1502.000000
1169.000000 383.000000 594.000000
877.000000 1258.000000 1021.000000
1083.000000 482.000000 791.000000
1190.000000 1106.000000 1088.000000
845.000000 1085.000000 746.000000
957.000000 1139.000000 1280.000000
809.000000 1143.000000 900.000000
1163.000000 186.000000 1285.000000
864.000000 488.000000 644.000000
1167.000000 1121.000000 457.000000
1137.000000 476.000000 463.000000
1139.000000 402.000000 1295.000000
1172.000000 1117.000000 728.000000
1180.000000 700.000000 1091.000000
999.000000 570.000000 1309.000000
1147.000000 1232.000000 874.000000
822.000000 439.000000 505.000000
961.000000 1794.000000 1043.000000
844.000000 1230.000000 772.000000
815.000000 431.000000 1130.000000
824.000000 969.000000 945.000000
828.000000 676.000000 1127.000000
1098.000000 140.000000 1242.000000
821.000000 945.000000 1111.000000
830.000000 796.000000 1151.000000
1016.000000 833.000000 1309.000000
1171.000000 251.000000 1036.000000
888.000000 888.000000 1269.000000
1091.000000 164.000000 1138.000000
950.000000 1718.000000 1090.000000
1176.000000 548.000000 1025.000000
941.000000 226.000000 1533.000000
814.000000 388.000000 677.000000
877.000000 359.000000 465.000000
1172.000000 589.000000 950.000000
1018.000000 1328.000000 1087.000000
841.000000 1258.000000 559.000000
864.000000 136.000000 1459.000000
975.000000 1516.000000 1050.000000
1168.000000 287.000000 879.000000
1082.000000 345.000000 435.000000
825.000000 769.000000 987.000000
802.000000 423.000000 794.000000
861.000000 835.000000 856.000000
810.000000 322.000000 895.000000
1004.000000 367.000000 1473.000000
864.000000 409.000000 1287.000000
963.000000 1647.000000 1048.000000
1080.000000 464.000000 620.000000
1167.000000 919.000000 920.000000
1180.000000 454.000000 552.000000
1177.000000 793.000000 1120.000000
1106.000000 184.000000 976.000000
1202.000000 292.000000 1557.000000
1068.000000 1303.000000 1154.000000
849.000000 990.000000 849.000000
1114.000000 84.000000 1403.000000
1179.000000 967.000000 1137.000000
915.000000 1206.000000 543.000000
925.000000 1273.000000 1111.000000
1200.000000 424.000000 944.000000
896.000000 320.000000 805.000000
1196.000000 367.000000 1071.000000
822.000000 1189.000000 1044.000000
1014.000000 1.000000 1371.000000
1187.000000 1000.000000 968.000000
1143.000000 721.000000 869.000000
1145.000000 864.000000 861.000000
1102.000000 997.000000 794.000000
1119.000000 610.000000 818.000000
1031.000000 1482.000000 1157.000000
844.000000 583.000000 895.000000
1196.000000 1114.000000 891.000000
964.000000 66.000000 1449.000000
1170.000000 1202.000000 508.000000
906.000000 554.000000 796.000000
1096.000000 212.000000 901.000000
800.000000 290.000000 1562.000000
821.000000 646.000000 997.000000
965.000000 1928.000000 1049.000000
917.000000 1184.000000 627.000000
1144.000000 226.000000 1122.000000
924.000000 675.000000 787.000000
994.000000 144.000000 999.000000
1011.000000 506.000000 767.000000
1041.000000 1735.000000 1113.000000
936.000000 235.000000 861.000000
863.000000 208.000000 1060.000000
1040.000000 941.000000 803.000000
904.000000 473.000000 711.000000
874.000000 1111.000000 461.000000
866.000000 398.000000 388.000000
1137.000000 1237.000000 1122.000000
1115.000000 206.000000 1553.000000
1167.000000 276.000000 1184.000000
1138.000000 1249.000000 1029.000000
916.000000 1050.000000 1289.000000
946.000000 1202.000000 862.000000
1039.000000 644.000000 773.000000
1080.000000 436.000000 502.000000
1182.000000 264.000000 1285.000000
805.000000 1138.000000 438.000000
959.000000 1852.000000 1094.000000
852.000000 936.000000 1221.000000
804.000000 411.000000 1026.000000
957.000000 985.000000 809.000000
1047.000000 318.000000 814.000000
861.000000 226.000000 938.000000
837.000000 1073.000000 1195.000000
854.000000 348.000000 1435.000000
1095.000000 510.000000 1272.000000
1149.000000 350.000000 1427.000000
863.000000 490.000000 778.000000
826.000000 347.000000 1156.000000
1165.000000 396.000000 1213.000000
981.000000 1073.000000 850.000000
1040.000000 1925.000000 1055.000000
1035.000000 1846.000000 1108.000000
952.000000 513.000000 1292.000000
934.000000 379.000000 704.000000
819.000000 286.000000 1068.000000
849.000000 379.000000 542.000000
984.000000 764.000000 1308.000000
820.000000 1210.000000 644.000000
1191.000000 361.000000 437.000000
1072.000000 880.000000 1298.000000
1184.000000 286.000000 1413.000000
1055.000000 1171.000000 731.000000
1155.000000 1098.000000 388.000000
1190.000000 1151.000000 1007.000000
1090.000000 85.000000 1473.000000
1176.000000 477.000000 1168.000000
1064.000000 388.000000 712.000000
1101.000000 1175.000000 610.000000
1054.000000 1012.000000 1304.000000
1131.000000 1274.000000 535.000000
1185.000000 387.000000 665.000000
1202.000000 411.000000 796.000000
845.000000 473.000000 1214.000000
810.000000 1024.000000 991.000000
1148.000000 1235.000000 801.000000
1179.000000 854.000000 1002.000000
916.000000 1075.000000 736.000000
1047.000000 1077.000000 783.000000
1111.000000 1165.000000 469.000000
964.000000 63.000000 1275.000000
994.000000 436.000000 770.000000
1200.000000 340.000000 919.000000
886.000000 1231.000000 427.000000
862.000000 1027.000000 1246.000000
1006.000000 1199.000000 921.000000
810.000000 369.000000 746.000000
1182.000000 706.000000 1015.000000
888.000000 260.000000 1567.000000
1129.000000 624.000000 1246.000000
951.000000 1295.000000 1206.000000
881.000000 190.000000 1155.000000
1148.000000 483.000000 706.000000
1183.000000 935.000000 1074.000000
866.000000 1162.000000 387.000000
1030.000000 1364.000000 1192.000000
840.000000 151.000000 1318.000000
1099.000000 1258.000000 710.000000
1116.000000 387.000000 390.000000
1049.000000 395.000000 1427.000000
949.000000 1165.000000 745.000000
824.000000 1170.000000 1116.000000
1174.000000 343.000000 1165.000000
1061.000000 152.000000 1019.000000
926.000000 458.000000 587.000000
827.000000 532.000000 1102.000000
1174.000000 659.000000 955.000000
1036.000000 630.000000 1306.000000
1033.000000 1282.000000 1032.000000
927.000000 857.000000 793.000000
1052.000000 244.000000 1533.000000
823.000000 743.000000 1106.000000
1102.000000 1133.000000 665.000000
1174.000000 1225.000000 672.000000
943.000000 1422.000000 1129.000000
867.000000 1141.000000 652.000000
1089.000000 447.000000 1313.000000
973.000000 772.000000 780.000000
851.000000 272.000000 1462.000000
891.000000 1238.000000 1162.000000
847.000000 234.000000 1198.000000
914.000000 1105.000000 402.000000
905.000000 1169.000000 1244.000000
926.000000 413.000000 1383.000000
951.000000 670.000000 1302.000000
835.000000 596.000000 1150.000000
833.000000 353.000000 1258.000000
1134.000000 753.000000 1254.000000
1055.000000 1601.000000 1098.000000
826.000000 543.000000 1035.000000
831.000000 1240.000000 473.000000
1191.000000 433.000000 721.000000
956.000000 27.000000 1394.000000
1041.000000 1417.000000 1075.000000
852.000000 1278.000000 624.000000
831.000000 328.000000 426.000000
1069.000000 733.000000 1298.000000
877.000000 194.000000 995.000000
839.000000 519.000000 915.000000
1087.000000 1226.000000 484.000000
1067.000000 1148.000000 1270.000000
909.000000 1280.000000 666.000000
866.000000 679.000000 1243.000000
1104.000000 1051.000000 755.000000
915.000000 464.000000 511.000000
1155.000000 782.000000 894.000000
991.000000 1271.000000 1109.000000
872.000000 1243.000000 928.000000
834.000000 211.000000 1436.000000
1191.000000 292.000000 981.000000
834.000000 447.000000 418.000000
824.000000 879.000000 1104.000000
812.000000 295.000000 955.000000
1137.000000 327.000000 1506.000000
826.000000 329.000000 1379.000000
1088.000000 751.000000 795.000000
826.000000 706.000000 968.000000
986.000000 1248.000000 1245.000000
819.000000 1035.000000 1129.000000
1056.000000 1243.000000 1230.000000
908.000000 171.000000 1520.000000
1132.000000 341.000000 717.000000
1161.000000 316.000000 822.000000
1176.000000 785.000000 976.000000
860.000000 113.000000 1366.000000
1064.000000 409.000000 649.000000
1136.000000 491.000000 604.000000
1190.000000 1102.000000 827.000000
1171.000000 158.000000 1342.000000
800.000000 416.000000 943.000000
1152.000000 1178.000000 569.000000
973.000000 1079.000000 1298.000000
916.000000 1207.000000 479.000000
997.000000 356.000000 799.000000
877.000000 580.000000 1250.000000
902.000000 58.000000 1346.000000
996.000000 126.000000 1132.000000
958.000000 138.000000 1079.000000
914.000000 410.000000 478.000000
896.000000 1250.000000 742.000000
1140.000000 329.000000 456.000000
1194.000000 311.000000 1042.000000
806.000000 1110.000000 954.000000
1187.000000 458.000000 1098.000000
821.000000 872.000000 1024.000000
1161.000000 1222.000000 977.000000
929.000000 1266.000000 985.000000
955.000000 1165.000000 812.000000
926.000000 397.000000 603.000000
1009.000000 104.000000 1242.000000
1172.000000 744.000000 1159.000000
1156.000000 1012.000000 838.000000
866.000000 753.000000 1250.000000
999.000000 1456.000000 1050.000000
802.000000 331.000000 1026.000000
959.000000 332.000000 1500.000000
1007.000000 15.000000 1310.000000
1180.000000 1215.000000 447.000000
941.000000 431.000000 738.000000
904.000000 173.000000 1092.000000
819.000000 445.000000 653.000000
952.000000 1045.000000 794.000000
823.000000 466.000000 835.000000
825.000000 272.000000 1271.000000
1063.000000 310.000000 1508.000000
962.000000 544.000000 772.000000
847.000000 278.000000 1524.000000
1147.000000 1073.000000 1230.000000
831.000000 907.000000 939.000000
870.000000 775.000000 847.000000
929.000000 926.000000 1299.000000
1128.000000 1153.000000 389.000000
1106.000000 390.000000 471.000000
1036.000000 953.000000 1310.000000
958.000000 1346.000000 1096.000000
812.000000 220.000000 1361.000000
1042.000000 441.000000 1354.000000
1158.000000 249.000000 1556.000000
1105.000000 539.000000 803.000000
985.000000 189.000000 906.000000
1205.000000 1128.000000 410.000000
1194.000000 1068.000000 1041.000000
1095.000000 1238.000000 830.000000
1142.000000 528.000000 1235.000000
1061.000000 148.000000 1525.000000
986.000000 458.000000 1339.000000
1187.000000 1158.000000 770.000000
1177.000000 431.000000 461.000000
1134.000000 120.000000 1449.000000
1160.000000 547.000000 909.000000
958.000000 1196.000000 1260.000000
1051.000000 1546.000000 1075.000000
1169.000000 974.000000 897.000000
1178.000000 210.000000 1409.000000
1086.000000 1270.000000 651.000000
1057.000000 1238.000000 929.000000
1083.000000 96.000000 1279.000000
1087.000000 1272.000000 1009.000000
1018.000000 1659.000000 1029.000000
979.000000 1963.000000 1097.000000
968.000000 1547.000000 1142.000000
926.000000 735.000000 787.000000
827.000000 1200.000000 903.000000
810.000000 1084.000000 1069.000000
876.000000 1100.000000 697.000000
942.000000 162.000000 975.000000
1159.000000 487.000000 828.000000
1143.000000 1280.000000 606.000000
965.000000 156.000000 1531.000000
1047.000000 1733.000000 1054.000000
820.000000 768.000000 1048.000000
840.000000 828.000000 911.000000
899.000000 88.000000 1465.000000
1135.000000 814.000000 1249.000000
893.000000 460.000000 1275.000000
1096.000000 1185.000000 1235.000000
1185.000000 1054.000000 1117.000000
1027.000000 1109.000000 856.000000
1162.000000 627.000000 1171.000000
1098.000000 938.000000 809.000000
858.000000 664.000000 864.000000
800.000000 370.000000 862.000000
828.000000 1205.000000 539.000000
1168.000000 350.000000 1295.000000
1203.000000 402.000000 890.000000
839.000000 479.000000 591.000000
951.000000 1460.000000 1083.000000
1168.000000 831.000000 1163.000000
874.000000 887.000000 833.000000
951.000000 870.000000 1305.000000
987.000000 1730.000000 1133.000000
1074.000000 155.000000 1082.000000
1187.000000 980.000000 1025.000000
1152.000000 915.000000 1216.000000
974.000000 1350.000000 1199.000000
1059.000000 1446.000000 1122.000000
918.000000 149.000000 1194.000000
1050.000000 539.000000 1295.000000
1162.000000 245.000000 1233.000000
1124.000000 445.000000 416.000000
1065.000000 439.000000 754.000000
1090.000000 1093.000000 1277.000000
1088.000000 823.000000 796.000000
818.000000 1135.000000 754.000000
1151.000000 174.000000 1458.000000
832.000000 940.000000 1167.000000
830.000000 1214.000000 718.000000
966.000000 929.000000 802.000000
1142.000000 270.000000 1501.000000
950.000000 1639.000000 1104.000000
1170.000000 562.000000 1146.000000
855.000000 871.000000 1224.000000
820.000000 654.000000 1061.000000
824.000000 1005.000000 898.000000
921.000000 344.000000 432.000000
978.000000 1603.000000 1142.000000
884.000000 1244.000000 811.000000
1116.000000 486.000000 658.000000
1142.000000 208.000000 1013.000000
1189.000000 290.000000 1339.000000
860.000000 483.000000 503.000000
896.000000 1273.000000 547.000000
1010.000000 1772.000000 1020.000000
1179.000000 589.000000 1064.000000
1190.000000 355.000000 793.000000
834.000000 291.000000 1159.000000
898.000000 135.000000 1256.000000
864.000000 336.000000 1491.000000
847.000000 713.000000 892.000000
994.000000 243.000000 1542.000000
841.000000 671.000000 1183.000000
1148.000000 705.000000 1228.000000
1088.000000 640.000000 1285.000000
