ply
format ascii 1.0
element vertex 735
property float x
property float y
property float z
end_header
887.000000 1064.000000 1076.000000
2001.000000 1001.000000 916.000000
1.000000 997.000000 941.000000
1432.000000 920.000000 957.000000
479.000000 743.000000 924.000000
440.000000 1270.000000 917.000000
852.000000 732.000000 907.000000
312.000000 997.000000 1042.000000
1711.000000 1047.000000 1039.000000
1184.000000 1111.000000 984.000000
627.000000 1019.000000 907.000000
832.000000 1279.000000 904.000000
1068.000000 862.000000 1021.000000
750.000000 883.000000 1045.000000
511.000000 916.000000 1056.000000
1259.000000 934.000000 1078.000000
1005.000000 1027.000000 905.000000
477.000000 1117.000000 1047.000000
722.000000 1156.000000 1015.000000
994.000000 1205.000000 989.000000
1517.000000 1057.000000 1068.000000
816.000000 994.000000 905.000000
182.000000 1041.000000 913.000000
1589.000000 1007.000000 902.000000
439.000000 1001.000000 908.000000
1365.000000 1090.000000 968.000000
1187.000000 946.000000 913.000000
1062.000000 1029.000000 1087.000000
1823.000000 992.000000 911.000000
622.000000 845.000000 931.000000
333.000000 1135.000000 940.000000
648.000000 1017.000000 1086.000000
354.000000 859.000000 952.000000
905.000000 875.000000 982.000000
584.000000 1160.000000 948.000000
858.000000 1135.000000 945.000000
1609.000000 946.000000 1057.000000
230.000000 920.000000 961.000000
344.000000 719.000000 906.000000
1280.000000 1071.000000 1075.000000
1319.000000 977.000000 907.000000
490.000000 878.000000 928.000000
956.000000 948.000000 1081.000000
1384.000000 991.000000 1058.000000
749.000000 879.000000 913.000000
461.000000 1131.000000 912.000000
309.000000 1010.000000 905.000000
776.000000 1000.000000 1093.000000
1702.000000 961.000000 943.000000
1010.000000 898.000000 913.000000
1465.000000 1036.000000 910.000000
734.000000 1090.000000 908.000000
1072.000000 1127.000000 934.000000
114.000000 959.000000 975.000000
629.000000 890.000000 1046.000000
958.000000 789.000000 915.000000
430.000000 1007.000000 1061.000000
1140.000000 939.000000 1076.000000
1492.000000 945.000000 1053.000000
248.000000 1083.000000 998.000000
990.000000 1116.000000 1062.000000
1910.000000 1001.000000 986.000000
1791.000000 968.000000 1018.000000
590.000000 1105.000000 1047.000000
1327.000000 908.000000 994.000000
1606.000000 1055.000000 1002.000000
1116.000000 1030.000000 905.000000
1233.000000 1046.000000 908.000000
850.000000 922.000000 1068.000000
922.000000 1216.000000 907.000000
1174.000000 1043.000000 1070.000000
404.000000 903.000000 1039.000000
919.000000 958.000000 906.000000
371.000000 1094.000000 1033.000000
977.000000 804.000000 1020.000000
338.000000 1241.000000 903.000000
535.000000 1018.000000 1076.000000
1095.000000 1120.000000 1042.000000
440.000000 812.000000 995.000000
1536.000000 935.000000 957.000000
959.000000 1119.000000 922.000000
1198.000000 894.000000 1002.000000
529.000000 1052.000000 907.000000
477.000000 1202.000000 985.000000
791.000000 1096.000000 1062.000000
574.000000 932.000000 907.000000
198.000000 997.000000 1017.000000
717.000000 975.000000 907.000000
1104.000000 902.000000 940.000000
89.000000 1047.000000 944.000000
1457.000000 1082.000000 996.000000
812.000000 849.000000 980.000000
892.000000 1052.000000 908.000000
552.000000 853.000000 996.000000
701.000000 831.000000 982.000000
677.000000 1161.000000 932.000000
1048.000000 929.000000 1082.000000
1701.000000 955.000000 1036.000000
369.000000 940.000000 910.000000
871.000000 822.000000 913.000000
1275.000000 1099.000000 987.000000
1757.000000 1032.000000 961.000000
1667.000000 1044.000000 931.000000
843.000000 908.000000 917.000000
915.000000 1122.000000 1013.000000
701.000000 1087.000000 1068.000000
307.000000 914.000000 1006.000000
972.000000 1035.000000 1095.000000
379.000000 1066.000000 909.000000
693.000000 942.000000 1077.000000
1533.000000 1068.000000 955.000000
1621.000000 947.000000 970.000000
1029.000000 824.000000 954.000000
773.000000 1157.000000 945.000000
404.000000 1157.000000 985.000000
1261.000000 913.000000 940.000000
402.000000 776.000000 926.000000
1361.000000 1071.000000 1050.000000
1381.000000 1033.000000 909.000000
656.000000 917.000000 906.000000
1060.000000 964.000000 906.000000
172.000000 959.000000 916.000000
272.000000 1083.000000 919.000000
990.000000 878.000000 1054.000000
624.000000 1101.000000 907.000000
592.000000 959.000000 1071.000000
1920.000000 998.000000 905.000000
641.000000 1157.000000 1007.000000
912.000000 1199.000000 987.000000
814.000000 1076.000000 910.000000
297.000000 905.000000 919.000000
1438.000000 1049.000000 1067.000000
1304.000000 997.000000 1063.000000
484.000000 1206.000000 907.000000
1309.000000 1062.000000 921.000000
800.000000 790.000000 908.000000
888.000000 986.000000 1090.000000
845.000000 1203.000000 910.000000
518.000000 807.000000 943.000000
1397.000000 922.000000 1026.000000
913.000000 798.000000 977.000000
500.000000 954.000000 908.000000
1552.000000 995.000000 1039.000000
815.000000 1146.000000 1009.000000
536.000000 1142.000000 1005.000000
1479.000000 961.000000 913.000000
420.000000 851.000000 914.000000
154.000000 1047.000000 983.000000
246.000000 970.000000 908.000000
1053.000000 1160.000000 997.000000
1390.000000 960.000000 912.000000
1838.000000 1009.000000 980.000000
1012.000000 1168.000000 928.000000
1218.000000 1095.000000 1046.000000
1335.000000 932.000000 1062.000000
1232.000000 1000.000000 1068.000000
69.000000 981.000000 924.000000
1647.000000 1000.000000 1024.000000
1133.000000 1090.000000 939.000000
484.000000 864.000000 1016.000000
915.000000 901.000000 1047.000000
957.000000 856.000000 938.000000
955.000000 1174.000000 1039.000000
437.000000 920.000000 908.000000
529.000000 1121.000000 927.000000
1134.000000 886.000000 1030.000000
252.000000 953.000000 1026.000000
374.000000 965.000000 1050.000000
1248.000000 978.000000 906.000000
783.000000 932.000000 1081.000000
310.000000 1063.000000 1023.000000
635.000000 842.000000 998.000000
558.000000 869.000000 927.000000
381.000000 1303.000000 912.000000
1652.000000 983.000000 903.000000
1263.000000 905.000000 1016.000000
988.000000 962.000000 906.000000
1756.000000 987.000000 911.000000
463.000000 1064.000000 907.000000
776.000000 940.000000 907.000000
692.000000 1037.000000 908.000000
479.000000 1053.000000 1066.000000
1059.000000 1066.000000 909.000000
254.000000 1030.000000 1038.000000
758.000000 1028.000000 905.000000
714.000000 1025.000000 1089.000000
687.000000 855.000000 921.000000
451.000000 944.000000 1063.000000
1115.000000 1071.000000 1082.000000
1785.000000 1035.000000 1021.000000
824.000000 1045.000000 1088.000000
369.000000 1031.000000 1052.000000
396.000000 1136.000000 921.000000
565.000000 997.000000 907.000000
1122.000000 1002.000000 1078.000000
424.000000 1214.000000 947.000000
1012.000000 983.000000 1089.000000
1524.000000 1009.000000 905.000000
1422.000000 1074.000000 941.000000
688.000000 864.000000 1038.000000
1178.000000 1011.000000 905.000000
855.000000 874.000000 1023.000000
1125.000000 963.000000 906.000000
857.000000 1111.000000 1043.000000
1047.000000 1090.000000 1075.000000
1198.000000 916.000000 1062.000000
176.000000 947.000000 982.000000
1484.000000 923.000000 994.000000
592.000000 1045.000000 1070.000000
374.000000 1003.000000 907.000000
128.000000 1004.000000 919.000000
461.000000 803.000000 917.000000
904.000000 760.000000 928.000000
1156.000000 1104.000000 1047.000000
531.000000 1086.000000 1055.000000
943.000000 1016.000000 905.000000
1447.000000 988.000000 1057.000000
1568.000000 942.000000 1010.000000
1343.000000 928.000000 937.000000
567.000000 891.000000 1043.000000
1594.000000 1055.000000 941.000000
401.000000 860.000000 993.000000
1737.000000 998.000000 1010.000000
216.000000 1081.000000 945.000000
887.000000 1263.000000 926.000000
904.000000 902.000000 926.000000
50.000000 1011.000000 975.000000
326.000000 1117.000000 998.000000
242.000000 1031.000000 908.000000
1229.000000 1093.000000 947.000000
1163.000000 908.000000 954.000000
1546.000000 1062.000000 1014.000000
1670.000000 1046.000000 992.000000
921.000000 1164.000000 938.000000
650.000000 1113.000000 1048.000000
756.000000 837.000000 956.000000
421.000000 1066.000000 1052.000000
830.000000 972.000000 1095.000000
945.000000 855.000000 1022.000000
1018.000000 1109.000000 914.000000
1637.000000 1051.000000 1053.000000
420.000000 1128.000000 1035.000000
1584.000000 952.000000 924.000000
1789.000000 977.000000 959.000000
1874.000000 985.000000 940.000000
1104.000000 1116.000000 984.000000
943.000000 1081.000000 1070.000000
1963.000000 1001.000000 961.000000
1058.000000 867.000000 927.000000
511.000000 1173.000000 947.000000
974.000000 1212.000000 934.000000
479.000000 774.000000 974.000000
874.000000 996.000000 905.000000
483.000000 1247.000000 948.000000
1012.000000 1165.000000 1037.000000
1177.000000 983.000000 1076.000000
354.000000 883.000000 1017.000000
1402.000000 1085.000000 1012.000000
479.000000 1145.000000 997.000000
106.000000 1014.000000 989.000000
500.000000 973.000000 1069.000000
401.000000 721.000000 910.000000
904.000000 1105.000000 928.000000
858.000000 864.000000 950.000000
586.000000 1059.000000 905.000000
806.000000 888.000000 1052.000000
1182.000000 1068.000000 921.000000
1327.000000 1092.000000 1010.000000
1089.000000 895.000000 1063.000000
803.000000 869.000000 928.000000
681.000000 1109.000000 910.000000
1704.000000 1009.000000 907.000000
622.000000 963.000000 908.000000
394.000000 1239.000000 905.000000
957.000000 916.000000 913.000000
1499.000000 1007.000000 1050.000000
761.000000 1053.000000 1080.000000
327.000000 1087.000000 913.000000
712.000000 920.000000 908.000000
1020.000000 837.000000 1032.000000
979.000000 799.000000 965.000000
722.000000 1171.000000 962.000000
1574.000000 1057.000000 1061.000000
495.000000 1009.000000 907.000000
1380.000000 912.000000 974.000000
1673.000000 957.000000 989.000000
743.000000 1117.000000 1047.000000
315.000000 956.000000 909.000000
967.000000 1067.000000 908.000000
1434.000000 991.000000 906.000000
206.000000 1049.000000 999.000000
1075.000000 976.000000 1083.000000
1478.000000 1073.000000 947.000000
455.000000 891.000000 1052.000000
766.000000 848.000000 1008.000000
589.000000 1146.000000 1012.000000
608.000000 891.000000 907.000000
382.000000 888.000000 916.000000
1284.000000 1017.000000 906.000000
644.000000 964.000000 1080.000000
884.000000 1213.000000 944.000000
866.000000 1137.000000 997.000000
288.000000 1098.000000 967.000000
733.000000 970.000000 1097.000000
726.000000 1141.000000 919.000000
923.000000 828.000000 909.000000
1414.000000 949.000000 1069.000000
436.000000 750.000000 956.000000
308.000000 880.000000 965.000000
641.000000 1066.000000 1070.000000
811.000000 1126.000000 925.000000
921.000000 1027.000000 1090.000000
148.000000 987.000000 1003.000000
1448.000000 929.000000 1031.000000
491.000000 824.000000 984.000000
408.000000 823.000000 956.000000
1102.000000 886.000000 989.000000
1599.000000 1016.000000 1035.000000
1557.000000 947.000000 1060.000000
1066.000000 1015.000000 905.000000
527.000000 911.000000 915.000000
634.000000 1170.000000 958.000000
1230.000000 1051.000000 1069.000000
667.000000 987.000000 908.000000
856.000000 777.000000 931.000000
432.000000 1172.000000 919.000000
1347.000000 1025.000000 1066.000000
1534.000000 960.000000 913.000000
1040.000000 884.000000 1058.000000
578.000000 1122.000000 915.000000
904.000000 940.000000 1077.000000
421.000000 1094.000000 909.000000
138.000000 1053.000000 935.000000
1497.000000 1067.000000 1023.000000
1065.000000 914.000000 911.000000
1213.000000 906.000000 955.000000
844.000000 1036.000000 906.000000
768.000000 1160.000000 996.000000
998.000000 921.000000 1078.000000
329.000000 951.000000 1033.000000
1316.000000 1092.000000 960.000000
592.000000 839.000000 970.000000
1708.000000 1039.000000 961.000000
204.000000 996.000000 907.000000
930.000000 1124.000000 966.000000
1017.000000 1052.000000 1084.000000
736.000000 918.000000 1077.000000
953.000000 1178.000000 903.000000
1742.000000 967.000000 971.000000
1804.000000 1022.000000 946.000000
1003.000000 850.000000 921.000000
1046.000000 1131.000000 1046.000000
544.000000 951.000000 1069.000000
928.000000 809.000000 1022.000000
1064.000000 852.000000 973.000000
871.000000 947.000000 909.000000
42.000000 1021.000000 928.000000
359.000000 765.000000 905.000000
518.000000 858.000000 962.000000
1553.000000 1046.000000 917.000000
1266.000000 1093.000000 1034.000000
858.000000 1094.000000 918.000000
1334.000000 1023.000000 907.000000
595.000000 861.000000 1018.000000
1633.000000 954.000000 1016.000000
660.000000 831.000000 957.000000
1229.000000 1103.000000 1000.000000
438.000000 754.000000 902.000000
696.000000 1128.000000 1044.000000
677.000000 1171.000000 979.000000
260.000000 914.000000 998.000000
1298.000000 937.000000 922.000000
413.000000 961.000000 907.000000
651.000000 1062.000000 907.000000
1625.000000 1037.000000 910.000000
952.000000 1212.000000 1011.000000
369.000000 1134.000000 1008.000000
125.000000 958.000000 929.000000
888.000000 1183.000000 908.000000
803.000000 1182.000000 908.000000
36.000000 970.000000 957.000000
1488.000000 930.000000 947.000000
916.000000 839.000000 954.000000
673.000000 904.000000 1057.000000
1393.000000 1037.000000 1063.000000
255.000000 926.000000 922.000000
684.000000 987.000000 1087.000000
1355.000000 1066.000000 929.000000
421.000000 1044.000000 907.000000
1656.000000 955.000000 940.000000
1692.000000 1010.000000 1018.000000
817.000000 1152.000000 963.000000
438.000000 859.000000 1021.000000
1522.000000 936.000000 1017.000000
620.000000 1146.000000 921.000000
1747.000000 958.000000 1031.000000
443.000000 1175.000000 1002.000000
1274.000000 1087.000000 939.000000
953.000000 994.000000 1086.000000
822.000000 948.000000 908.000000
1292.000000 921.000000 1048.000000
1633.000000 1052.000000 965.000000
1270.000000 1026.000000 1073.000000
905.000000 1098.000000 1051.000000
441.000000 1225.000000 906.000000
866.000000 1026.000000 1092.000000
524.000000 879.000000 1032.000000
1220.000000 956.000000 1068.000000
1436.000000 948.000000 921.000000
954.000000 1127.000000 1036.000000
606.000000 1002.000000 1076.000000
1508.000000 1051.000000 920.000000
1144.000000 1119.000000 1006.000000
340.000000 1043.000000 909.000000
1231.000000 937.000000 916.000000
500.000000 1088.000000 916.000000
217.000000 942.000000 1000.000000
763.000000 983.000000 905.000000
932.000000 1217.000000 951.000000
212.000000 939.000000 923.000000
516.000000 1218.000000 939.000000
1285.000000 904.000000 977.000000
768.000000 1120.000000 914.000000
1027.000000 1182.000000 968.000000
1016.000000 812.000000 995.000000
493.000000 834.000000 917.000000
956.000000 907.000000 1063.000000
1096.000000 935.000000 1081.000000
1317.000000 1077.000000 1051.000000
622.000000 926.000000 1071.000000
833.000000 1085.000000 1071.000000
338.000000 888.000000 921.000000
364.000000 924.000000 1035.000000
1103.000000 1072.000000 912.000000
1198.000000 1079.000000 1082.000000
817.000000 1238.000000 910.000000
275.000000 908.000000 957.000000
1343.000000 977.000000 1066.000000
723.000000 848.000000 1017.000000
372.000000 1144.000000 958.000000
1154.000000 886.000000 991.000000
473.000000 1008.000000 1069.000000
783.000000 1130.000000 1035.000000
457.000000 961.000000 908.000000
1959.000000 1012.000000 919.000000
1907.000000 1013.000000 944.000000
828.000000 822.000000 919.000000
1578.000000 941.000000 966.000000
922.000000 1165.000000 1012.000000
1570.000000 1062.000000 978.000000
1741.000000 1028.000000 921.000000
1025.000000 939.000000 908.000000
680.000000 1049.000000 1078.000000
1023.000000 987.000000 905.000000
649.000000 873.000000 912.000000
480.000000 916.000000 910.000000
1846.000000 1018.000000 938.000000
176.000000 1065.000000 951.000000
551.000000 1089.000000 909.000000
283.000000 1044.000000 905.000000
801.000000 1034.000000 906.000000
1137.000000 927.000000 926.000000
365.000000 1106.000000 917.000000
544.000000 1152.000000 964.000000
409.000000 1254.000000 942.000000
771.000000 1069.000000 908.000000
978.000000 838.000000 1046.000000
1727.000000 1038.000000 999.000000
498.000000 781.000000 916.000000
1423.000000 1042.000000 912.000000
1364.000000 993.000000 906.000000
366.000000 1265.000000 924.000000
542.000000 960.000000 908.000000
1353.000000 918.000000 1026.000000
1268.000000 977.000000 1073.000000
411.000000 944.000000 1049.000000
75.000000 977.000000 972.000000
451.000000 880.000000 912.000000
271.000000 989.000000 1037.000000
550.000000 1120.000000 1038.000000
1437.000000 1073.000000 1032.000000
1501.000000 1075.000000 982.000000
1798.000000 1003.000000 996.000000
805.000000 861.000000 1020.000000
1225.000000 902.000000 1033.000000
950.000000 786.000000 992.000000
1880.000000 1011.000000 908.000000
485.000000 1165.000000 914.000000
1016.000000 1067.000000 908.000000
1479.000000 1041.000000 1063.000000
970.000000 1170.000000 940.000000
814.000000 751.000000 906.000000
1156.000000 1079.000000 1080.000000
802.000000 908.000000 912.000000
1394.000000 929.000000 939.000000
886.000000 802.000000 946.000000
717.000000 836.000000 942.000000
933.000000 886.000000 953.000000
681.000000 1158.000000 1019.000000
435.000000 792.000000 959.000000
1158.000000 907.000000 1056.000000
1455.000000 950.000000 1072.000000
1373.000000 946.000000 1069.000000
1207.000000 981.000000 905.000000
983.000000 1076.000000 1078.000000
563.000000 988.000000 1078.000000
683.000000 949.000000 909.000000
1308.000000 1039.000000 1065.000000
916.000000 837.000000 995.000000
300.000000 1113.000000 931.000000
1426.000000 917.000000 998.000000
926.000000 1074.000000 911.000000
1588.000000 975.000000 1038.000000
877.000000 1228.000000 907.000000
453.000000 1231.000000 970.000000
1142.000000 1060.000000 913.000000
1302.000000 956.000000 1067.000000
1612.000000 974.000000 905.000000
1788.000000 1012.000000 910.000000
943.000000 784.000000 952.000000
712.000000 895.000000 1053.000000
403.000000 1170.000000 947.000000
1245.000000 901.000000 979.000000
900.000000 794.000000 907.000000
553.000000 1054.000000 1068.000000
1055.000000 1156.000000 956.000000
1485.000000 1000.000000 906.000000
1712.000000 961.000000 997.000000
1524.000000 969.000000 1052.000000
1542.000000 1033.000000 1048.000000
1671.000000 1040.000000 1034.000000
1173.000000 1095.000000 949.000000
331.000000 1032.000000 1040.000000
1827.000000 985.000000 950.000000
270.000000 1002.000000 904.000000
1662.000000 954.000000 1044.000000
574.000000 924.000000 1066.000000
291.000000 947.000000 1022.000000
673.000000 840.000000 1009.000000
392.000000 859.000000 941.000000
495.000000 1137.000000 940.000000
875.000000 899.000000 1048.000000
1093.000000 986.000000 905.000000
442.000000 1100.000000 1053.000000
1189.000000 1110.000000 1024.000000
891.000000 1131.000000 966.000000
864.000000 955.000000 1084.000000
741.000000 1086.000000 1071.000000
1422.000000 1087.000000 978.000000
1101.000000 931.000000 911.000000
90.000000 1014.000000 922.000000
621.000000 1133.000000 1031.000000
166.000000 1005.000000 909.000000
155.000000 943.000000 949.000000
1271.000000 1054.000000 912.000000
271.000000 1062.000000 1022.000000
895.000000 882.000000 1019.000000
1086.000000 1095.000000 1072.000000
849.000000 858.000000 988.000000
1162.000000 975.000000 906.000000
819.000000 1119.000000 1045.000000
168.000000 1020.000000 1008.000000
350.000000 996.000000 1050.000000
511.000000 1125.000000 1030.000000
1102.000000 1034.000000 1087.000000
253.000000 1090.000000 952.000000
292.000000 1029.000000 1031.000000
1872.000000 1000.000000 996.000000
392.000000 1000.000000 1052.000000
402.000000 1032.000000 1072.000000
88.000000 954.000000 944.000000
380.000000 745.000000 932.000000
728.000000 1052.000000 907.000000
236.000000 1000.000000 1022.000000
1081.000000 1134.000000 1009.000000
685.000000 892.000000 909.000000
604.000000 1163.000000 981.000000
978.000000 999.000000 905.000000
722.000000 1013.000000 906.000000
473.000000 1246.000000 911.000000
1039.000000 1142.000000 920.000000
349.000000 974.000000 908.000000
1045.000000 837.000000 1003.000000
118.000000 1046.000000 970.000000
815.000000 1007.000000 1091.000000
1748.000000 1039.000000 1031.000000
1351.000000 957.000000 913.000000
647.000000 861.000000 1029.000000
363.000000 858.000000 989.000000
969.000000 820.000000 935.000000
912.000000 1163.000000 975.000000
925.000000 969.000000 1091.000000
771.000000 963.000000 1099.000000
556.000000 847.000000 959.000000
1365.000000 1089.000000 1006.000000
987.000000 1190.000000 1024.000000
992.000000 1137.000000 920.000000
1311.000000 914.000000 951.000000
699.000000 1076.000000 909.000000
421.000000 1189.000000 975.000000
1667.000000 1018.000000 904.000000
963.000000 1218.000000 972.000000
912.000000 995.000000 905.000000
976.000000 884.000000 920.000000
456.000000 841.000000 913.000000
1145.000000 1109.000000 970.000000
456.000000 1140.000000 1026.000000
1139.000000 1036.000000 1081.000000
278.000000 951.000000 906.000000
335.000000 924.000000 912.000000
291.000000 1088.000000 1003.000000
1101.000000 1107.000000 948.000000
516.000000 1050.000000 1069.000000
349.000000 1064.000000 1032.000000
1022.000000 1181.000000 1005.000000
508.000000 770.000000 950.000000
509.000000 1145.000000 974.000000
405.000000 1275.000000 906.000000
852.000000 1252.000000 921.000000
1640.000000 1047.000000 1015.000000
1565.000000 979.000000 905.000000
1198.000000 1015.000000 1073.000000
1402.000000 1068.000000 1045.000000
216.000000 1056.000000 916.000000
1121.000000 1100.000000 1059.000000
1177.000000 945.000000 1071.000000
400.000000 920.000000 909.000000
819.000000 940.000000 1080.000000
655.000000 1136.000000 915.000000
739.000000 945.000000 907.000000
1687.000000 976.000000 912.000000
21.000000 1026.000000 958.000000
607.000000 1080.000000 1069.000000
461.000000 975.000000 1080.000000
494.000000 1086.000000 1057.000000
1422.000000 1015.000000 1058.000000
405.000000 972.000000 1072.000000
863.000000 1183.000000 935.000000
615.000000 927.000000 906.000000
788.000000 1035.000000 1097.000000
32.000000 986.000000 924.000000
1171.000000 888.000000 1026.000000
1027.000000 1017.000000 1088.000000
1115.000000 966.000000 1077.000000
194.000000 932.000000 954.000000
1054.000000 1103.000000 913.000000
1936.000000 991.000000 938.000000
1123.000000 908.000000 1066.000000
1620.000000 952.000000 934.000000
1098.000000 881.000000 1030.000000
1283.000000 967.000000 908.000000
531.000000 1014.000000 907.000000
1229.000000 1010.000000 905.000000
952.000000 973.000000 905.000000
1134.000000 998.000000 905.000000
1071.000000 1064.000000 1083.000000
515.000000 859.000000 998.000000
490.000000 886.000000 1044.000000
586.000000 966.000000 908.000000
1129.000000 896.000000 967.000000
590.000000 1023.000000 907.000000
1399.000000 1002.000000 905.000000
445.000000 1041.000000 1062.000000
1082.000000 876.000000 953.000000
464.000000 1028.000000 907.000000
386.000000 1061.000000 1042.000000
981.000000 1150.000000 1047.000000
1247.000000 1082.000000 1063.000000
775.000000 904.000000 1060.000000
431.000000 820.000000 928.000000
1391.000000 1063.000000 927.000000
486.000000 939.000000 1068.000000
339.000000 1141.000000 975.000000
736.000000 836.000000 986.000000
237.000000 1053.000000 1016.000000
325.000000 885.000000 996.000000
586.000000 849.000000 936.000000
1042.000000 964.000000 1091.000000
892.000000 877.000000 949.000000
1738.000000 968.000000 935.000000
462.000000 838.000000 1005.000000
657.000000 932.000000 1072.000000
846.000000 974.000000 906.000000
1602.000000 946.000000 1001.000000
720.000000 1058.000000 1076.000000
836.000000 790.000000 905.000000
406.000000 1096.000000 1040.000000
571.000000 897.000000 910.000000
1298.000000 909.000000 1014.000000
1997.000000 1002.000000 951.000000
1761.000000 973.000000 1000.000000
1337.000000 1058.000000 1073.000000
1792.000000 980.000000 924.000000
998.000000 1197.000000 955.000000
1600.000000 1051.000000 1038.000000
770.000000 856.000000 930.000000
985.000000 1097.000000 911.000000
794.000000 1066.000000 1080.000000
990.000000 955.000000 1086.000000
990.000000 927.000000 909.000000
876.000000 761.000000 907.000000
417.000000 888.000000 910.000000
1677.000000 979.000000 1024.000000
1871.000000 1012.000000 962.000000
220.000000 969.000000 1024.000000
495.000000 1044.000000 908.000000
389.000000 877.000000 1021.000000
750.000000 1023.000000 1095.000000
754.000000 913.000000 908.000000
908.000000 1236.000000 932.000000
1254.000000 915.000000 1048.000000
1197.000000 1040.000000 907.000000
936.000000 860.000000 978.000000
222.000000 1072.000000 978.000000
753.000000 1144.000000 1025.000000
525.000000 878.000000 932.000000
841.000000 893.000000 1049.000000
1480.000000 977.000000 1058.000000
1038.000000 1037.000000 906.000000
1763.000000 1030.000000 995.000000
598.000000 904.000000 1051.000000
311.000000 1124.000000 964.000000
1078.000000 1138.000000 975.000000
1245.000000 1075.000000 922.000000
986.000000 1005.000000 1085.000000
79.000000 1029.000000 972.000000
445.000000 1256.000000 948.000000
339.000000 1095.000000 1021.000000
557.000000 1142.000000 934.000000
1013.000000 1093.000000 1073.000000
944.000000 884.000000 1040.000000
715.000000 876.000000 913.000000
667.000000 1089.000000 1066.000000
455.000000 1097.000000 910.000000
662.000000 1021.000000 908.000000
