ply
format ascii 1.0
element vertex 806
property float x
property float y
property float z
end_header
1073.000000 1306.000000 1472.000000
980.000000 518.000000 2.000000
999.000000 514.000000 952.000000
985.000000 597.000000 1879.000000
1052.000000 844.000000 478.000000
968.000000 1070.000000 979.000000
1102.000000 779.000000 1398.000000
975.000000 1513.000000 1794.000000
953.000000 1000.000000 1687.000000
957.000000 530.000000 603.000000
908.000000 527.000000 1545.000000
907.000000 806.000000 169.000000
1097.000000 801.000000 808.000000
927.000000 1051.000000 1312.000000
902.000000 779.000000 1124.000000
1060.000000 539.000000 306.000000
1037.000000 505.000000 1262.000000
1009.000000 857.000000 2001.000000
1101.000000 759.000000 1679.000000
1043.000000 1254.000000 1739.000000
924.000000 1529.000000 1521.000000
901.000000 765.000000 660.000000
1099.000000 731.000000 36.000000
906.000000 801.000000 1540.000000
1086.000000 1065.000000 1496.000000
899.000000 800.000000 1798.000000
901.000000 695.000000 379.000000
1101.000000 711.000000 1023.000000
900.000000 718.000000 899.000000
906.000000 680.000000 1331.000000
1089.000000 531.000000 1685.000000
1101.000000 760.000000 274.000000
911.000000 1187.000000 1570.000000
1100.000000 571.000000 1457.000000
1098.000000 692.000000 621.000000
1089.000000 1444.000000 1630.000000
1080.000000 848.000000 1204.000000
917.000000 579.000000 1121.000000
1074.000000 1509.000000 1393.000000
1073.000000 902.000000 978.000000
1048.000000 576.000000 772.000000
937.000000 612.000000 171.000000
910.000000 1366.000000 1650.000000
900.000000 630.000000 1708.000000
914.000000 985.000000 1491.000000
1034.000000 1069.000000 1157.000000
927.000000 866.000000 1345.000000
928.000000 1224.000000 1387.000000
1073.000000 887.000000 1546.000000
1086.000000 666.000000 438.000000
1101.000000 666.000000 1202.000000
1076.000000 963.000000 1349.000000
901.000000 703.000000 24.000000
1070.000000 828.000000 1838.000000
940.000000 1398.000000 1405.000000
958.000000 853.000000 334.000000
1086.000000 1105.000000 1664.000000
941.000000 538.000000 433.000000
1047.000000 852.000000 650.000000
922.000000 523.000000 1380.000000
955.000000 676.000000 532.000000
1073.000000 555.000000 1089.000000
947.000000 848.000000 787.000000
1056.000000 1133.000000 1356.000000
969.000000 668.000000 1488.000000
927.000000 846.000000 984.000000
918.000000 654.000000 762.000000
1045.000000 676.000000 886.000000
1082.000000 656.000000 167.000000
1073.000000 907.000000 1695.000000
1086.000000 649.000000 1781.000000
1068.000000 1399.000000 1770.000000
1086.000000 642.000000 1587.000000
945.000000 1146.000000 1708.000000
1052.000000 818.000000 146.000000
956.000000 467.000000 1670.000000
906.000000 804.000000 477.000000
1089.000000 1236.000000 1600.000000
960.000000 680.000000 1026.000000
980.000000 949.000000 1225.000000
927.000000 860.000000 1669.000000
920.000000 1509.000000 1662.000000
1041.000000 527.000000 130.000000
935.000000 1317.000000 1521.000000
1060.000000 540.000000 509.000000
1094.000000 647.000000 1340.000000
986.000000 738.000000 1233.000000
991.000000 680.000000 276.000000
1058.000000 1529.000000 1529.000000
974.000000 738.000000 1639.000000
1011.000000 849.000000 1089.000000
912.000000 569.000000 1255.000000
1017.000000 738.000000 720.000000
948.000000 1101.000000 1436.000000
940.000000 541.000000 838.000000
1094.000000 758.000000 1528.000000
948.000000 1346.000000 1773.000000
946.000000 1529.000000 1393.000000
1014.000000 642.000000 2.000000
1033.000000 529.000000 1566.000000
970.000000 695.000000 1800.000000
1073.000000 1534.000000 1716.000000
927.000000 765.000000 1420.000000
940.000000 539.000000 272.000000
1089.000000 997.000000 1602.000000
910.000000 1064.000000 1588.000000
1010.000000 831.000000 892.000000
1081.000000 1184.000000 1465.000000
900.000000 643.000000 1586.000000
962.000000 803.000000 60.000000
930.000000 824.000000 1914.000000
1085.000000 600.000000 975.000000
915.000000 603.000000 940.000000
1042.000000 738.000000 1125.000000
1012.000000 1308.000000 1368.000000
1052.000000 585.000000 652.000000
948.000000 849.000000 582.000000
925.000000 640.000000 643.000000
1042.000000 1423.000000 1470.000000
927.000000 842.000000 1227.000000
1101.000000 776.000000 393.000000
901.000000 760.000000 279.000000
1094.000000 755.000000 1281.000000
1073.000000 1051.000000 1268.000000
944.000000 546.000000 720.000000
914.000000 1259.000000 1698.000000
900.000000 670.000000 1193.000000
1011.000000 817.000000 1738.000000
1008.000000 499.000000 1455.000000
993.000000 738.000000 437.000000
1013.000000 592.000000 1188.000000
1065.000000 1334.000000 1657.000000
968.000000 954.000000 979.000000
1101.000000 749.000000 521.000000
1065.000000 883.000000 1431.000000
1000.000000 583.000000 1739.000000
1097.000000 689.000000 785.000000
1101.000000 769.000000 922.000000
972.000000 964.000000 1395.000000
1037.000000 855.000000 252.000000
927.000000 877.000000 1459.000000
911.000000 947.000000 1597.000000
1003.000000 738.000000 1343.000000
915.000000 1423.000000 1553.000000
1073.000000 856.000000 1321.000000
997.000000 738.000000 612.000000
981.000000 1432.000000 1710.000000
976.000000 738.000000 823.000000
1087.000000 666.000000 328.000000
1099.000000 680.000000 1450.000000
1070.000000 519.000000 1366.000000
990.000000 738.000000 184.000000
898.000000 593.000000 1459.000000
900.000000 705.000000 133.000000
978.000000 517.000000 1058.000000
1045.000000 570.000000 408.000000
944.000000 595.000000 66.000000
1086.000000 1366.000000 1558.000000
1018.000000 832.000000 1620.000000
1046.000000 571.000000 877.000000
906.000000 734.000000 1717.000000
1065.000000 1144.000000 1561.000000
1074.000000 638.000000 536.000000
1034.000000 1045.000000 1410.000000
992.000000 738.000000 948.000000
940.000000 604.000000 354.000000
1010.000000 1532.000000 1619.000000
970.000000 613.000000 1381.000000
967.000000 1057.000000 1080.000000
959.000000 506.000000 1189.000000
1101.000000 749.000000 1783.000000
906.000000 777.000000 1302.000000
1073.000000 808.000000 1019.000000
970.000000 585.000000 1630.000000
1026.000000 702.000000 1717.000000
901.000000 759.000000 760.000000
1086.000000 965.000000 1484.000000
1101.000000 790.000000 707.000000
1104.000000 630.000000 1684.000000
955.000000 845.000000 686.000000
901.000000 761.000000 1027.000000
1048.000000 577.000000 215.000000
1092.000000 587.000000 1260.000000
901.000000 753.000000 561.000000
1063.000000 610.000000 81.000000
1029.000000 645.000000 1097.000000
1038.000000 857.000000 752.000000
959.000000 1139.000000 1346.000000
1020.000000 738.000000 1439.000000
1028.000000 1183.000000 1673.000000
935.000000 1227.000000 1484.000000
950.000000 580.000000 520.000000
965.000000 1069.000000 1225.000000
998.000000 928.000000 1634.000000
1063.000000 1227.000000 1379.000000
966.000000 634.000000 851.000000
1053.000000 847.000000 347.000000
1023.000000 738.000000 346.000000
1049.000000 1019.000000 1686.000000
971.000000 856.000000 429.000000
978.000000 849.000000 1824.000000
911.000000 1277.000000 1604.000000
997.000000 738.000000 1546.000000
902.000000 793.000000 382.000000
906.000000 804.000000 860.000000
984.000000 908.000000 1727.000000
1101.000000 787.000000 608.000000
927.000000 634.000000 446.000000
907.000000 681.000000 228.000000
1066.000000 827.000000 1932.000000
903.000000 536.000000 1706.000000
926.000000 1308.000000 1428.000000
903.000000 688.000000 1102.000000
1098.000000 739.000000 129.000000
1021.000000 1434.000000 1379.000000
987.000000 1081.000000 1657.000000
917.000000 580.000000 1029.000000
928.000000 956.000000 1315.000000
956.000000 1457.000000 1475.000000
1060.000000 658.000000 706.000000
947.000000 845.000000 241.000000
1004.000000 727.000000 33.000000
906.000000 676.000000 1423.000000
970.000000 528.000000 187.000000
1007.000000 869.000000 1260.000000
983.000000 1320.000000 1693.000000
1101.000000 760.000000 1190.000000
997.000000 469.000000 76.000000
1003.000000 826.000000 1370.000000
1080.000000 531.000000 1188.000000
998.000000 1180.000000 1421.000000
969.000000 627.000000 1292.000000
1031.000000 822.000000 563.000000
900.000000 716.000000 467.000000
987.000000 529.000000 355.000000
983.000000 684.000000 1163.000000
1034.000000 1011.000000 993.000000
1010.000000 1533.000000 1455.000000
914.000000 1116.000000 1516.000000
957.000000 506.000000 1299.000000
903.000000 759.000000 1210.000000
906.000000 712.000000 1531.000000
1050.000000 800.000000 59.000000
989.000000 1424.000000 1798.000000
1029.000000 751.000000 1833.000000
1069.000000 1367.000000 1408.000000
970.000000 599.000000 1541.000000
1060.000000 540.000000 28.000000
1098.000000 801.000000 1104.000000
1015.000000 738.000000 522.000000
997.000000 841.000000 1174.000000
994.000000 651.000000 952.000000
935.000000 882.000000 1545.000000
1016.000000 991.000000 1294.000000
927.000000 844.000000 1071.000000
906.000000 789.000000 1625.000000
914.000000 1468.000000 1749.000000
1042.000000 468.000000 1652.000000
1061.000000 738.000000 1604.000000
1103.000000 572.000000 1542.000000
989.000000 1534.000000 1705.000000
1021.000000 738.000000 1035.000000
1084.000000 1450.000000 1546.000000
922.000000 1032.000000 1396.000000
1006.000000 1079.000000 1310.000000
1055.000000 1483.000000 1780.000000
934.000000 621.000000 1784.000000
1039.000000 530.000000 589.000000
1092.000000 680.000000 246.000000
995.000000 1352.000000 1447.000000
1024.000000 529.000000 707.000000
1015.000000 680.000000 779.000000
911.000000 1133.000000 1634.000000
1065.000000 810.000000 1471.000000
1051.000000 532.000000 1013.000000
1030.000000 1327.000000 1777.000000
907.000000 593.000000 1333.000000
998.000000 1261.000000 1433.000000
1017.000000 516.000000 1133.000000
970.000000 654.000000 1675.000000
991.000000 680.000000 670.000000
930.000000 519.000000 1465.000000
1065.000000 1243.000000 1522.000000
1004.000000 899.000000 1026.000000
1089.000000 1454.000000 1710.000000
933.000000 621.000000 275.000000
1085.000000 606.000000 1150.000000
967.000000 738.000000 1096.000000
980.000000 680.000000 381.000000
1097.000000 689.000000 946.000000
1055.000000 738.000000 835.000000
1073.000000 1111.000000 1432.000000
900.000000 696.000000 976.000000
906.000000 696.000000 1645.000000
1019.000000 617.000000 1809.000000
899.000000 706.000000 819.000000
1070.000000 758.000000 201.000000
978.000000 857.000000 508.000000
930.000000 853.000000 1748.000000
970.000000 1218.000000 1736.000000
927.000000 783.000000 935.000000
1086.000000 919.000000 1618.000000
1090.000000 1075.000000 1590.000000
901.000000 694.000000 695.000000
1096.000000 687.000000 1099.000000
1003.000000 530.000000 1681.000000
1003.000000 811.000000 1888.000000
935.000000 1437.000000 1628.000000
924.000000 521.000000 1623.000000
1078.000000 579.000000 1746.000000
982.000000 1012.000000 1174.000000
1089.000000 1261.000000 1676.000000
926.000000 1385.000000 1482.000000
1070.000000 628.000000 829.000000
963.000000 532.000000 108.000000
996.000000 499.000000 1378.000000
1086.000000 570.000000 1618.000000
1022.000000 1117.000000 1716.000000
912.000000 1394.000000 1724.000000
1073.000000 831.000000 1675.000000
1086.000000 821.000000 1584.000000
975.000000 821.000000 134.000000
935.000000 1209.000000 1640.000000
936.000000 637.000000 2.000000
1014.000000 528.000000 822.000000
1073.000000 1057.000000 1345.000000
1034.000000 1069.000000 1043.000000
1080.000000 1490.000000 1467.000000
1083.000000 620.000000 1049.000000
971.000000 770.000000 1783.000000
1114.000000 643.000000 1515.000000
904.000000 773.000000 99.000000
995.000000 1207.000000 1350.000000
1063.000000 611.000000 281.000000
948.000000 738.000000 336.000000
996.000000 869.000000 957.000000
1072.000000 837.000000 938.000000
1094.000000 722.000000 1349.000000
1068.000000 738.000000 452.000000
1021.000000 680.000000 570.000000
896.000000 592.000000 1643.000000
927.000000 851.000000 1148.000000
1044.000000 854.000000 827.000000
899.000000 688.000000 1776.000000
939.000000 606.000000 1188.000000
905.000000 686.000000 303.000000
1086.000000 1318.000000 1728.000000
1021.000000 680.000000 475.000000
1080.000000 1511.000000 1598.000000
1083.000000 659.000000 26.000000
1012.000000 901.000000 1382.000000
906.000000 705.000000 1261.000000
969.000000 682.000000 1586.000000
1091.000000 588.000000 1385.000000
1070.000000 519.000000 1502.000000
1007.000000 1504.000000 1359.000000
940.000000 539.000000 912.000000
905.000000 684.000000 587.000000
1060.000000 604.000000 472.000000
1038.000000 1385.000000 1703.000000
1095.000000 681.000000 1274.000000
1101.000000 718.000000 691.000000
888.000000 643.000000 1513.000000
935.000000 1498.000000 1587.000000
990.000000 528.000000 487.000000
916.000000 1059.000000 1661.000000
921.000000 1170.000000 1440.000000
947.000000 588.000000 780.000000
927.000000 933.000000 1673.000000
1053.000000 969.000000 1419.000000
958.000000 631.000000 1088.000000
1090.000000 1172.000000 1636.000000
1009.000000 528.000000 252.000000
1032.000000 738.000000 261.000000
970.000000 585.000000 1461.000000
1073.000000 844.000000 1764.000000
1033.000000 821.000000 412.000000
977.000000 518.000000 1520.000000
1026.000000 752.000000 123.000000
1043.000000 675.000000 1000.000000
1090.000000 675.000000 97.000000
1065.000000 1299.000000 1575.000000
1044.000000 918.000000 1299.000000
1075.000000 1295.000000 1401.000000
954.000000 738.000000 1482.000000
1094.000000 691.000000 1647.000000
935.000000 1355.000000 1584.000000
935.000000 1048.000000 1520.000000
942.000000 891.000000 1280.000000
989.000000 1530.000000 1551.000000
1107.000000 850.000000 1384.000000
916.000000 659.000000 79.000000
962.000000 687.000000 1381.000000
920.000000 916.000000 1398.000000
927.000000 750.000000 214.000000
1065.000000 1008.000000 1536.000000
1073.000000 751.000000 761.000000
1000.000000 823.000000 200.000000
942.000000 598.000000 589.000000
1060.000000 738.000000 579.000000
982.000000 653.000000 1744.000000
935.000000 806.000000 1476.000000
929.000000 908.000000 1016.000000
952.000000 577.000000 658.000000
978.000000 1285.000000 1757.000000
1063.000000 544.000000 939.000000
1094.000000 701.000000 1733.000000
956.000000 1461.000000 1380.000000
1002.000000 1248.000000 1682.000000
939.000000 661.000000 910.000000
941.000000 833.000000 1407.000000
922.000000 1534.000000 1729.000000
1062.000000 851.000000 1136.000000
927.000000 798.000000 1700.000000
1061.000000 606.000000 351.000000
1056.000000 594.000000 148.000000
1101.000000 708.000000 381.000000
1081.000000 621.000000 909.000000
956.000000 854.000000 856.000000
1101.000000 797.000000 467.000000
1073.000000 807.000000 872.000000
1071.000000 630.000000 604.000000
942.000000 538.000000 981.000000
906.000000 637.000000 1254.000000
1025.000000 957.000000 1703.000000
953.000000 738.000000 695.000000
1101.000000 714.000000 879.000000
920.000000 1513.000000 1455.000000
1057.000000 738.000000 971.000000
1077.000000 1445.000000 1416.000000
927.000000 740.000000 1355.000000
1050.000000 669.000000 1157.000000
912.000000 1328.000000 1708.000000
988.000000 823.000000 631.000000
935.000000 1007.000000 1622.000000
1094.000000 747.000000 1458.000000
1073.000000 817.000000 1264.000000
1071.000000 783.000000 330.000000
984.000000 757.000000 1718.000000
950.000000 790.000000 1844.000000
935.000000 1248.000000 1548.000000
1040.000000 688.000000 1811.000000
943.000000 738.000000 1160.000000
1073.000000 785.000000 1337.000000
933.000000 619.000000 707.000000
1028.000000 1481.000000 1717.000000
948.000000 738.000000 508.000000
935.000000 844.000000 1600.000000
1080.000000 1370.000000 1490.000000
1055.000000 738.000000 647.000000
904.000000 803.000000 605.000000
931.000000 738.000000 1587.000000
950.000000 839.000000 1976.000000
1010.000000 738.000000 884.000000
1081.000000 537.000000 1303.000000
1004.000000 994.000000 1644.000000
1009.000000 1111.000000 1412.000000
995.000000 1371.000000 1379.000000
1073.000000 785.000000 1733.000000
958.000000 745.000000 125.000000
1052.000000 738.000000 1230.000000
1068.000000 518.000000 1434.000000
979.000000 586.000000 2.000000
906.000000 614.000000 1397.000000
988.000000 657.000000 1851.000000
1010.000000 822.000000 304.000000
922.000000 738.000000 1813.000000
971.000000 558.000000 1345.000000
1101.000000 698.000000 1556.000000
991.000000 522.000000 1616.000000
1073.000000 1246.000000 1445.000000
1016.000000 823.000000 700.000000
1047.000000 671.000000 384.000000
911.000000 1002.000000 1560.000000
1076.000000 505.000000 1610.000000
966.000000 1069.000000 1146.000000
1030.000000 744.000000 1768.000000
968.000000 679.000000 609.000000
960.000000 738.000000 1294.000000
1089.000000 949.000000 1558.000000
962.000000 738.000000 271.000000
929.000000 742.000000 415.000000
910.000000 1449.000000 1687.000000
965.000000 738.000000 759.000000
923.000000 636.000000 996.000000
947.000000 843.000000 921.000000
1065.000000 1129.000000 1498.000000
1083.000000 1019.000000 1447.000000
1096.000000 687.000000 500.000000
1065.000000 1496.000000 1660.000000
1029.000000 1056.000000 1221.000000
990.000000 529.000000 762.000000
1006.000000 528.000000 645.000000
906.000000 804.000000 714.000000
1040.000000 738.000000 1665.000000
999.000000 528.000000 887.000000
953.000000 1282.000000 1374.000000
955.000000 527.000000 1118.000000
917.000000 1049.000000 1458.000000
914.000000 580.000000 1581.000000
1063.000000 870.000000 1033.000000
971.000000 680.000000 732.000000
927.000000 807.000000 538.000000
924.000000 1090.000000 1368.000000
1032.000000 1067.000000 962.000000
906.000000 801.000000 1364.000000
1022.000000 501.000000 1200.000000
1073.000000 753.000000 1069.000000
954.000000 738.000000 1000.000000
1023.000000 808.000000 1800.000000
1089.000000 1380.000000 1620.000000
950.000000 581.000000 225.000000
935.000000 1123.000000 1576.000000
1073.000000 964.000000 1662.000000
1006.000000 850.000000 1938.000000
919.000000 977.000000 1427.000000
1031.000000 948.000000 994.000000
938.000000 947.000000 1540.000000
1051.000000 583.000000 557.000000
1040.000000 738.000000 1500.000000
957.000000 679.000000 808.000000
1073.000000 902.000000 1364.000000
1073.000000 635.000000 763.000000
928.000000 815.000000 294.000000
900.000000 697.000000 1040.000000
1094.000000 798.000000 104.000000
932.000000 650.000000 1143.000000
1015.000000 867.000000 1777.000000
984.000000 936.000000 1296.000000
943.000000 747.000000 40.000000
938.000000 575.000000 1742.000000
888.000000 581.000000 1520.000000
935.000000 1309.000000 1653.000000
1059.000000 602.000000 18.000000
1077.000000 1168.000000 1403.000000
1093.000000 806.000000 233.000000
1000.000000 528.000000 416.000000
1026.000000 502.000000 1323.000000
1087.000000 903.000000 1486.000000
935.000000 738.000000 614.000000
991.000000 528.000000 549.000000
1087.000000 1046.000000 1645.000000
975.000000 549.000000 1408.000000
1074.000000 1208.000000 1706.000000
1038.000000 677.000000 630.000000
1018.000000 903.000000 1209.000000
968.000000 680.000000 443.000000
1021.000000 995.000000 1224.000000
973.000000 1030.000000 1272.000000
1056.000000 595.000000 714.000000
1101.000000 708.000000 1157.000000
969.000000 795.000000 1615.000000
990.000000 577.000000 851.000000
915.000000 550.000000 1196.000000
1032.000000 738.000000 1288.000000
899.000000 702.000000 527.000000
945.000000 536.000000 49.000000
1073.000000 804.000000 521.000000
1026.000000 680.000000 327.000000
927.000000 833.000000 1291.000000
1020.000000 526.000000 73.000000
1030.000000 631.000000 1714.000000
903.000000 802.000000 234.000000
1090.000000 1403.000000 1676.000000
1011.000000 738.000000 1177.000000
1062.000000 830.000000 1528.000000
1098.000000 693.000000 560.000000
1004.000000 826.000000 791.000000
982.000000 822.000000 380.000000
927.000000 788.000000 806.000000
927.000000 1175.000000 1513.000000
1057.000000 822.000000 1402.000000
1102.000000 645.000000 1400.000000
1009.000000 685.000000 839.000000
1100.000000 707.000000 193.000000
1077.000000 1012.000000 1384.000000
1101.000000 726.000000 323.000000
1073.000000 1007.000000 1308.000000
920.000000 1199.000000 1698.000000
1022.000000 1187.000000 1732.000000
1046.000000 738.000000 1384.000000
1107.000000 851.000000 1462.000000
989.000000 685.000000 1079.000000
1086.000000 1187.000000 1526.000000
937.000000 515.000000 1244.000000
943.000000 593.000000 888.000000
973.000000 1013.000000 994.000000
980.000000 858.000000 738.000000
988.000000 1140.000000 1666.000000
997.000000 1044.000000 1702.000000
935.000000 898.000000 1624.000000
1066.000000 795.000000 658.000000
913.000000 926.000000 1489.000000
962.000000 688.000000 19.000000
1046.000000 532.000000 363.000000
927.000000 748.000000 854.000000
1073.000000 862.000000 1625.000000
965.000000 1376.000000 1702.000000
937.000000 1409.000000 1775.000000
921.000000 1453.000000 1428.000000
1092.000000 590.000000 1326.000000
1073.000000 790.000000 1633.000000
914.000000 663.000000 856.000000
960.000000 676.000000 326.000000
1071.000000 630.000000 224.000000
975.000000 1054.000000 1407.000000
1023.000000 1057.000000 1099.000000
1046.000000 532.000000 453.000000
928.000000 632.000000 505.000000
1029.000000 528.000000 187.000000
927.000000 798.000000 1173.000000
1101.000000 775.000000 980.000000
923.000000 980.000000 1368.000000
983.000000 1408.000000 1457.000000
922.000000 1471.000000 1520.000000
948.000000 547.000000 1669.000000
1073.000000 811.000000 756.000000
1039.000000 1292.000000 1689.000000
1052.000000 738.000000 396.000000
1018.000000 738.000000 782.000000
939.000000 687.000000 1711.000000
1073.000000 798.000000 1156.000000
914.000000 665.000000 173.000000
1017.000000 1477.000000 1467.000000
965.000000 738.000000 564.000000
1052.000000 781.000000 1560.000000
991.000000 685.000000 904.000000
906.000000 704.000000 1474.000000
945.000000 592.000000 410.000000
955.000000 738.000000 904.000000
1064.000000 874.000000 1265.000000
1094.000000 708.000000 1500.000000
1067.000000 816.000000 283.000000
959.000000 1485.000000 1718.000000
948.000000 1089.000000 1698.000000
1096.000000 608.000000 1206.000000
930.000000 816.000000 426.000000
1090.000000 1288.000000 1625.000000
1044.000000 569.000000 1136.000000
927.000000 783.000000 1073.000000
1036.000000 686.000000 238.000000
1094.000000 717.000000 1406.000000
977.000000 738.000000 1401.000000
1000.000000 824.000000 467.000000
1068.000000 622.000000 407.000000
997.000000 549.000000 1015.000000
975.000000 852.000000 1042.000000
968.000000 681.000000 1309.000000
901.000000 720.000000 78.000000
928.000000 646.000000 390.000000
948.000000 586.000000 122.000000
1075.000000 1153.000000 1693.000000
1038.000000 547.000000 1640.000000
924.000000 1163.000000 1384.000000
927.000000 752.000000 1667.000000
904.000000 759.000000 1500.000000
1065.000000 1123.000000 1615.000000
955.000000 573.000000 1080.000000
919.000000 1281.000000 1481.000000
1041.000000 680.000000 942.000000
1017.000000 552.000000 1087.000000
949.000000 1337.000000 1386.000000
957.000000 529.000000 1572.000000
1084.000000 1320.000000 1525.000000
917.000000 544.000000 1308.000000
927.000000 792.000000 1252.000000
969.000000 654.000000 1434.000000
955.000000 561.000000 321.000000
1043.000000 548.000000 1716.000000
1101.000000 802.000000 1800.000000
899.000000 704.000000 639.000000
1095.000000 786.000000 160.000000
1065.000000 1418.000000 1587.000000
903.000000 751.000000 164.000000
1080.000000 650.000000 655.000000
1073.000000 846.000000 1082.000000
981.000000 738.000000 383.000000
1018.000000 649.000000 1043.000000
1081.000000 533.000000 1244.000000
1065.000000 1093.000000 1540.000000
921.000000 647.000000 1050.000000
899.000000 705.000000 749.000000
1050.000000 587.000000 1016.000000
1101.000000 765.000000 850.000000
902.000000 797.000000 982.000000
1094.000000 625.000000 1467.000000
997.000000 1368.000000 1793.000000
1056.000000 738.000000 916.000000
1052.000000 1075.000000 1695.000000
971.000000 572.000000 1292.000000
901.000000 766.000000 334.000000
949.000000 584.000000 464.000000
927.000000 1252.000000 1434.000000
982.000000 712.000000 1749.000000
1101.000000 743.000000 1115.000000
929.000000 630.000000 810.000000
916.000000 1370.000000 1535.000000
1065.000000 1220.000000 1649.000000
1015.000000 1517.000000 1756.000000
1092.000000 677.000000 839.000000
972.000000 1531.000000 1495.000000
1020.000000 626.000000 851.000000
1101.000000 714.000000 1228.000000
927.000000 779.000000 1752.000000
915.000000 553.000000 1425.000000
976.000000 1199.000000 1675.000000
1087.000000 1374.000000 1724.000000
1004.000000 738.000000 666.000000
962.000000 879.000000 1387.000000
1008.000000 815.000000 90.000000
953.000000 1463.000000 1787.000000
985.000000 876.000000 1626.000000
914.000000 643.000000 1653.000000
1021.000000 1254.000000 1358.000000
940.000000 541.000000 379.000000
969.000000 626.000000 1595.000000
934.000000 893.000000 1711.000000
927.000000 812.000000 654.000000
928.000000 632.000000 221.000000
1030.000000 671.000000 1761.000000
954.000000 1532.000000 1624.000000
900.000000 737.000000 1079.000000
1106.000000 618.000000 1631.000000
1038.000000 688.000000 19.000000
900.000000 707.000000 1152.000000
947.000000 1335.000000 1472.000000
925.000000 639.000000 558.000000
927.000000 812.000000 1028.000000
982.000000 550.000000 1169.000000
1035.000000 893.000000 1733.000000
1054.000000 665.000000 284.000000
1002.000000 857.000000 591.000000
1027.000000 1305.000000 1445.000000
1040.000000 631.000000 970.000000
984.000000 1057.000000 1028.000000
1005.000000 528.000000 305.000000
1008.000000 738.000000 1598.000000
1086.000000 582.000000 1670.000000
1100.000000 630.000000 1290.000000
1080.000000 630.000000 1103.000000
1009.000000 1156.000000 1342.000000
1065.000000 1196.000000 1575.000000
1057.000000 819.000000 609.000000
901.000000 745.000000 709.000000
958.000000 963.000000 1640.000000
1084.000000 932.000000 1442.000000
1022.000000 846.000000 1853.000000
901.000000 762.000000 509.000000
969.000000 952.000000 1702.000000
978.000000 822.000000 548.000000
958.000000 695.000000 238.000000
994.000000 823.000000 254.000000
1034.000000 1115.000000 1662.000000
1012.000000 998.000000 1396.000000
1099.000000 769.000000 1580.000000
987.000000 500.000000 1239.000000
975.000000 852.000000 1127.000000
901.000000 747.000000 964.000000
1073.000000 796.000000 1216.000000
927.000000 635.000000 125.000000
957.000000 1208.000000 1438.000000
1060.000000 540.000000 250.000000
961.000000 840.000000 1875.000000
1065.000000 1406.000000 1525.000000
1029.000000 849.000000 1217.000000
1046.000000 571.000000 824.000000
1052.000000 818.000000 200.000000
971.000000 744.000000 1830.000000
1029.000000 857.000000 523.000000
1077.000000 1071.000000 1396.000000
1101.000000 737.000000 805.000000
959.000000 903.000000 973.000000
1096.000000 687.000000 733.000000
941.000000 542.000000 555.000000
912.000000 1398.000000 1602.000000
950.000000 595.000000 979.000000
1043.000000 678.000000 523.000000
953.000000 674.000000 974.000000
948.000000 781.000000 1563.000000
906.000000 722.000000 1399.000000
1101.000000 628.000000 1736.000000
927.000000 850.000000 1505.000000
958.000000 1090.000000 1329.000000
908.000000 680.000000 428.000000
1026.000000 1529.000000 1406.000000
1050.000000 749.000000 41.000000
943.000000 537.000000 786.000000
1088.000000 700.000000 1792.000000
999.000000 498.000000 122.000000
1043.000000 1205.000000 1437.000000
1085.000000 530.000000 1566.000000
940.000000 540.000000 489.000000
906.000000 646.000000 1465.000000
946.000000 820.000000 744.000000
949.000000 819.000000 196.000000
945.000000 665.000000 687.000000
929.000000 760.000000 463.000000
1014.000000 685.000000 421.000000
951.000000 687.000000 1532.000000
963.000000 530.000000 675.000000
981.000000 868.000000 1216.000000
906.000000 694.000000 1594.000000
1024.000000 555.000000 970.000000
1073.000000 754.000000 1018.000000
968.000000 1034.000000 1650.000000
1101.000000 758.000000 659.000000
