ply
format ascii 1.0
element vertex 798
property float x
property float y
property float z
end_header
1047.000000 873.000000 1714.000000
1000.000000 1204.000000 1.000000
1000.000000 749.000000 803.000000
1003.000000 1413.000000 1081.000000
1002.000000 705.000000 25.000000
954.000000 955.000000 1242.000000
1009.000000 1045.000000 441.000000
975.000000 1134.000000 815.000000
960.000000 630.000000 1437.000000
1009.000000 678.000000 408.000000
1002.000000 1164.000000 1521.000000
1039.000000 601.000000 1106.000000
977.000000 909.000000 1999.000000
969.000000 962.000000 162.000000
1048.000000 940.000000 988.000000
1003.000000 1216.000000 1260.000000
1048.000000 867.000000 1460.000000
1048.000000 950.000000 666.000000
1035.000000 1166.000000 1037.000000
1028.000000 750.000000 1267.000000
1000.000000 1084.000000 1722.000000
1009.000000 760.000000 597.000000
1031.000000 869.000000 337.000000
1003.000000 1150.000000 615.000000
967.000000 757.000000 1002.000000
960.000000 732.000000 1606.000000
1001.000000 1150.000000 186.000000
1048.000000 1041.000000 1383.000000
954.000000 988.000000 1568.000000
954.000000 929.000000 827.000000
1000.000000 784.000000 1867.000000
988.000000 783.000000 186.000000
1038.000000 976.000000 1852.000000
960.000000 889.000000 495.000000
1048.000000 856.000000 1136.000000
954.000000 1032.000000 1094.000000
1036.000000 1032.000000 286.000000
1048.000000 1075.000000 1210.000000
1003.000000 1252.000000 912.000000
954.000000 1054.000000 943.000000
954.000000 850.000000 1346.000000
954.000000 1013.000000 573.000000
1001.000000 1069.000000 64.000000
1003.000000 1276.000000 1128.000000
956.000000 844.000000 703.000000
965.000000 719.000000 1142.000000
965.000000 1156.000000 1383.000000
1042.000000 730.000000 1492.000000
1001.000000 861.000000 70.000000
956.000000 1046.000000 709.000000
1045.000000 825.000000 910.000000
1048.000000 1025.000000 849.000000
954.000000 959.000000 1433.000000
954.000000 855.000000 1556.000000
956.000000 962.000000 1749.000000
963.000000 1153.000000 1147.000000
968.000000 775.000000 1741.000000
954.000000 876.000000 1049.000000
1043.000000 1074.000000 1602.000000
1048.000000 930.000000 1322.000000
954.000000 1070.000000 1293.000000
1048.000000 861.000000 784.000000
956.000000 834.000000 1214.000000
961.000000 966.000000 361.000000
1009.000000 779.000000 477.000000
1048.000000 918.000000 1600.000000
992.000000 741.000000 1383.000000
1038.000000 1137.000000 919.000000
1048.000000 976.000000 1142.000000
1003.000000 1314.000000 1014.000000
1048.000000 1003.000000 1496.000000
1044.000000 872.000000 577.000000
1036.000000 886.000000 221.000000
955.000000 1072.000000 1464.000000
961.000000 894.000000 1883.000000
1048.000000 1051.000000 1024.000000
1047.000000 934.000000 432.000000
954.000000 890.000000 935.000000
965.000000 649.000000 1035.000000
1047.000000 988.000000 1688.000000
1042.000000 807.000000 1620.000000
1003.000000 1186.000000 721.000000
954.000000 897.000000 1659.000000
1047.000000 972.000000 534.000000
1035.000000 1047.000000 178.000000
954.000000 916.000000 622.000000
1042.000000 1050.000000 626.000000
1046.000000 829.000000 1018.000000
1042.000000 1129.000000 1313.000000
960.000000 805.000000 1462.000000
1044.000000 869.000000 1820.000000
954.000000 929.000000 1140.000000
1039.000000 717.000000 1067.000000
1048.000000 924.000000 876.000000
1042.000000 1078.000000 758.000000
1037.000000 850.000000 1938.000000
957.000000 828.000000 853.000000
954.000000 944.000000 725.000000
1048.000000 850.000000 1256.000000
954.000000 975.000000 1008.000000
1048.000000 962.000000 768.000000
954.000000 1034.000000 811.000000
960.000000 662.000000 1533.000000
965.000000 945.000000 261.000000
1046.000000 1100.000000 1112.000000
954.000000 1044.000000 1195.000000
1025.000000 1165.000000 90.000000
1000.000000 736.000000 904.000000
954.000000 1016.000000 1665.000000
1036.000000 786.000000 717.000000
1041.000000 1123.000000 1439.000000
1036.000000 666.000000 1185.000000
1027.000000 768.000000 97.000000
958.000000 1106.000000 1028.000000
956.000000 866.000000 1777.000000
1045.000000 824.000000 1372.000000
954.000000 982.000000 1336.000000
1042.000000 631.000000 1490.000000
1048.000000 982.000000 1240.000000
974.000000 829.000000 270.000000
973.000000 1061.000000 353.000000
959.000000 812.000000 1120.000000
1048.000000 951.000000 1415.000000
959.000000 1085.000000 1558.000000
1038.000000 769.000000 1175.000000
961.000000 880.000000 400.000000
974.000000 1097.000000 259.000000
955.000000 982.000000 485.000000
985.000000 1033.000000 1801.000000
968.000000 869.000000 158.000000
989.000000 969.000000 1930.000000
1042.000000 701.000000 1580.000000
1003.000000 1220.000000 825.000000
1048.000000 1016.000000 939.000000
1009.000000 702.000000 524.000000
961.000000 1140.000000 1236.000000
1044.000000 1000.000000 371.000000
1047.000000 860.000000 666.000000
1038.000000 1164.000000 1195.000000
1046.000000 946.000000 1767.000000
960.000000 808.000000 1657.000000
1043.000000 813.000000 1531.000000
954.000000 974.000000 904.000000
1021.000000 1057.000000 534.000000
965.000000 628.000000 1147.000000
960.000000 715.000000 1462.000000
1048.000000 918.000000 1073.000000
965.000000 835.000000 587.000000
968.000000 1102.000000 1643.000000
954.000000 1057.000000 1378.000000
1043.000000 1087.000000 1517.000000
1036.000000 972.000000 221.000000
1027.000000 997.000000 109.000000
968.000000 1084.000000 141.000000
1003.000000 1289.000000 1212.000000
1048.000000 1045.000000 1297.000000
979.000000 1167.000000 973.000000
1036.000000 790.000000 1789.000000
966.000000 1021.000000 223.000000
1032.000000 915.000000 127.000000
1036.000000 947.000000 306.000000
954.000000 926.000000 1511.000000
1003.000000 1358.000000 1146.000000
960.000000 804.000000 933.000000
965.000000 714.000000 1226.000000
959.000000 960.000000 1832.000000
1013.000000 1110.000000 687.000000
1003.000000 1241.000000 1053.000000
1048.000000 910.000000 1199.000000
1039.000000 791.000000 1702.000000
964.000000 775.000000 1313.000000
975.000000 762.000000 1531.000000
965.000000 1077.000000 628.000000
954.000000 878.000000 1423.000000
962.000000 1119.000000 894.000000
1048.000000 925.000000 1519.000000
1048.000000 996.000000 1578.000000
1041.000000 886.000000 497.000000
1042.000000 682.000000 1427.000000
954.000000 991.000000 650.000000
1048.000000 1022.000000 701.000000
1039.000000 613.000000 1027.000000
954.000000 864.000000 780.000000
1032.000000 1178.000000 1116.000000
1041.000000 1104.000000 847.000000
1037.000000 769.000000 967.000000
1041.000000 793.000000 1090.000000
954.000000 884.000000 1275.000000
1040.000000 791.000000 1444.000000
1034.000000 833.000000 139.000000
966.000000 1169.000000 1071.000000
1040.000000 917.000000 1901.000000
965.000000 1169.000000 1307.000000
1041.000000 805.000000 835.000000
954.000000 941.000000 550.000000
954.000000 1003.000000 1494.000000
983.000000 1136.000000 35.000000
965.000000 1147.000000 1458.000000
966.000000 782.000000 744.000000
1008.000000 1139.000000 1592.000000
1040.000000 1027.000000 1751.000000
966.000000 1010.000000 298.000000
965.000000 720.000000 1067.000000
969.000000 827.000000 1920.000000
967.000000 903.000000 322.000000
965.000000 591.000000 1083.000000
966.000000 1111.000000 744.000000
989.000000 793.000000 660.000000
1048.000000 993.000000 1069.000000
984.000000 775.000000 38.000000
1048.000000 905.000000 723.000000
970.000000 810.000000 113.000000
954.000000 919.000000 1590.000000
1009.000000 828.000000 530.000000
1036.000000 1166.000000 1376.000000
1003.000000 1225.000000 1179.000000
1042.000000 1114.000000 988.000000
964.000000 802.000000 1808.000000
1003.000000 1234.000000 982.000000
1032.000000 869.000000 408.000000
1048.000000 874.000000 961.000000
1041.000000 1057.000000 1671.000000
1033.000000 1101.000000 119.000000
954.000000 961.000000 1077.000000
957.000000 1102.000000 1098.000000
955.000000 1007.000000 418.000000
1048.000000 983.000000 603.000000
954.000000 918.000000 1364.000000
966.000000 884.000000 227.000000
957.000000 826.000000 1000.000000
1003.000000 1333.000000 1081.000000
1003.000000 752.000000 1657.000000
1037.000000 766.000000 1334.000000
1034.000000 933.000000 1968.000000
1003.000000 1188.000000 886.000000
1029.000000 818.000000 229.000000
964.000000 771.000000 1187.000000
1046.000000 994.000000 469.000000
1048.000000 1056.000000 1452.000000
1039.000000 669.000000 1116.000000
961.000000 1029.000000 1734.000000
955.000000 851.000000 1710.000000
961.000000 801.000000 1393.000000
1048.000000 891.000000 1383.000000
955.000000 940.000000 432.000000
954.000000 900.000000 1201.000000
1048.000000 923.000000 1667.000000
1048.000000 1044.000000 1149.000000
954.000000 1051.000000 876.000000
962.000000 797.000000 1590.000000
1030.000000 1100.000000 223.000000
954.000000 1039.000000 1026.000000
954.000000 994.000000 1151.000000
1032.000000 819.000000 615.000000
1046.000000 1073.000000 906.000000
962.000000 789.000000 1059.000000
988.000000 847.000000 1981.000000
954.000000 865.000000 1488.000000
1048.000000 994.000000 1338.000000
1043.000000 926.000000 367.000000
970.000000 1019.000000 131.000000
1028.000000 765.000000 1572.000000
954.000000 976.000000 782.000000
1040.000000 835.000000 1875.000000
1048.000000 865.000000 1319.000000
1043.000000 1127.000000 1248.000000
1048.000000 857.000000 1578.000000
975.000000 1147.000000 127.000000
955.000000 1042.000000 1606.000000
1009.000000 715.000000 461.000000
1046.000000 830.000000 1195.000000
1009.000000 842.000000 463.000000
1003.000000 1117.000000 560.000000
954.000000 1018.000000 1254.000000
954.000000 912.000000 996.000000
967.000000 765.000000 857.000000
967.000000 1043.000000 503.000000
972.000000 907.000000 107.000000
954.000000 955.000000 1686.000000
1013.000000 1086.000000 310.000000
963.000000 781.000000 1250.000000
1048.000000 867.000000 847.000000
1048.000000 862.000000 1651.000000
1003.000000 1375.000000 1030.000000
1045.000000 1103.000000 1372.000000
958.000000 1109.000000 1342.000000
1048.000000 1022.000000 786.000000
965.000000 664.000000 1096.000000
1003.000000 1186.000000 1425.000000
1048.000000 923.000000 1260.000000
1037.000000 767.000000 1030.000000
1020.000000 742.000000 1122.000000
1048.000000 919.000000 813.000000
954.000000 1021.000000 1429.000000
1032.000000 858.000000 276.000000
954.000000 874.000000 1112.000000
957.000000 1105.000000 1185.000000
960.000000 838.000000 1858.000000
1044.000000 1106.000000 1051.000000
1048.000000 852.000000 1075.000000
954.000000 886.000000 874.000000
1009.000000 763.000000 536.000000
1048.000000 955.000000 929.000000
956.000000 859.000000 644.000000
1036.000000 720.000000 1213.000000
1003.000000 1177.000000 782.000000
963.000000 915.000000 1940.000000
1048.000000 922.000000 611.000000
954.000000 969.000000 1627.000000
984.000000 994.000000 1875.000000
1023.000000 1186.000000 1309.000000
954.000000 852.000000 1616.000000
960.000000 1111.000000 961.000000
1048.000000 889.000000 1020.000000
1046.000000 845.000000 725.000000
1048.000000 916.000000 1138.000000
969.000000 1079.000000 202.000000
1033.000000 966.000000 160.000000
1039.000000 795.000000 776.000000
958.000000 1106.000000 1415.000000
962.000000 799.000000 801.000000
1042.000000 679.000000 1525.000000
1048.000000 999.000000 996.000000
1048.000000 970.000000 1631.000000
1031.000000 1126.000000 792.000000
1031.000000 1057.000000 363.000000
963.000000 1121.000000 1511.000000
978.000000 845.000000 328.000000
955.000000 907.000000 1728.000000
954.000000 985.000000 845.000000
954.000000 905.000000 681.000000
1046.000000 844.000000 1765.000000
958.000000 901.000000 1824.000000
1008.000000 742.000000 1441.000000
965.000000 674.000000 1183.000000
957.000000 827.000000 1287.000000
957.000000 883.000000 554.000000
954.000000 937.000000 1299.000000
986.000000 1191.000000 56.000000
976.000000 1067.000000 571.000000
1042.000000 802.000000 1289.000000
1048.000000 1050.000000 1083.000000
1044.000000 927.000000 1822.000000
1030.000000 883.000000 1997.000000
970.000000 1181.000000 1197.000000
954.000000 1065.000000 1142.000000
1048.000000 868.000000 1517.000000
1025.000000 1106.000000 1647.000000
1044.000000 1114.000000 1167.000000
1038.000000 775.000000 884.000000
990.000000 731.000000 74.000000
1040.000000 996.000000 1799.000000
1039.000000 661.000000 1057.000000
954.000000 1083.000000 1238.000000
954.000000 998.000000 955.000000
1048.000000 975.000000 823.000000
1023.000000 810.000000 60.000000
970.000000 831.000000 209.000000
1003.000000 1168.000000 668.000000
959.000000 815.000000 1517.000000
1047.000000 917.000000 544.000000
1000.000000 730.000000 1311.000000
1048.000000 1005.000000 1429.000000
1003.000000 1287.000000 965.000000
971.000000 1110.000000 86.000000
1003.000000 1225.000000 1106.000000
1048.000000 1008.000000 1191.000000
1037.000000 1027.000000 231.000000
1037.000000 772.000000 1391.000000
987.000000 762.000000 135.000000
1048.000000 954.000000 1470.000000
1048.000000 1044.000000 1551.000000
1047.000000 942.000000 487.000000
954.000000 849.000000 1161.000000
1048.000000 1062.000000 969.000000
1048.000000 1025.000000 1627.000000
957.000000 1060.000000 762.000000
960.000000 713.000000 1553.000000
963.000000 1066.000000 1686.000000
954.000000 943.000000 951.000000
1048.000000 980.000000 880.000000
959.000000 1085.000000 833.000000
1027.000000 1117.000000 64.000000
1040.000000 790.000000 1232.000000
954.000000 1034.000000 1539.000000
954.000000 966.000000 601.000000
965.000000 760.000000 1106.000000
954.000000 918.000000 774.000000
987.000000 960.000000 111.000000
1037.000000 929.000000 255.000000
1048.000000 879.000000 906.000000
1044.000000 1029.000000 575.000000
1037.000000 1135.000000 1492.000000
1003.000000 1139.000000 862.000000
976.000000 753.000000 949.000000
1003.000000 1201.000000 939.000000
954.000000 998.000000 733.000000
994.000000 1191.000000 1354.000000
1036.000000 1131.000000 1547.000000
1035.000000 878.000000 168.000000
962.000000 947.000000 1889.000000
960.000000 664.000000 1478.000000
1018.000000 1122.000000 740.000000
954.000000 954.000000 1187.000000
1033.000000 1048.000000 123.000000
967.000000 934.000000 209.000000
1042.000000 630.000000 1437.000000
1048.000000 970.000000 715.000000
965.000000 1090.000000 679.000000
1048.000000 1002.000000 652.000000
1042.000000 749.000000 1620.000000
986.000000 1181.000000 1024.000000
959.000000 1122.000000 1285.000000
1045.000000 822.000000 965.000000
1001.000000 728.000000 1030.000000
1014.000000 1093.000000 636.000000
1048.000000 1034.000000 1244.000000
954.000000 987.000000 1389.000000
1030.000000 1160.000000 965.000000
1041.000000 1067.000000 676.000000
1038.000000 809.000000 670.000000
954.000000 889.000000 731.000000
1045.000000 1069.000000 809.000000
1030.000000 1109.000000 170.000000
954.000000 1034.000000 1330.000000
954.000000 915.000000 1460.000000
1046.000000 895.000000 1775.000000
1035.000000 1178.000000 1246.000000
1019.000000 767.000000 1743.000000
1033.000000 968.000000 1903.000000
1047.000000 930.000000 1718.000000
1048.000000 973.000000 1291.000000
1035.000000 712.000000 1161.000000
1024.000000 1167.000000 31.000000
966.000000 960.000000 310.000000
1025.000000 1150.000000 139.000000
1032.000000 1040.000000 487.000000
998.000000 850.000000 375.000000
1039.000000 630.000000 1149.000000
1045.000000 1014.000000 420.000000
980.000000 1158.000000 923.000000
1003.000000 1311.000000 1165.000000
960.000000 990.000000 1791.000000
954.000000 844.000000 902.000000
956.000000 920.000000 1777.000000
1016.000000 809.000000 1911.000000
991.000000 766.000000 1785.000000
1036.000000 984.000000 270.000000
974.000000 760.000000 1480.000000
971.000000 1060.000000 294.000000
1043.000000 806.000000 1140.000000
995.000000 731.000000 1185.000000
1035.000000 929.000000 194.000000
1048.000000 953.000000 1037.000000
967.000000 879.000000 278.000000
973.000000 874.000000 449.000000
1035.000000 995.000000 322.000000
992.000000 1025.000000 86.000000
1046.000000 835.000000 1421.000000
960.000000 679.000000 1427.000000
978.000000 1049.000000 402.000000
1026.000000 748.000000 40.000000
1027.000000 785.000000 154.000000
970.000000 772.000000 1690.000000
966.000000 766.000000 1429.000000
1038.000000 780.000000 1494.000000
959.000000 1016.000000 369.000000
958.000000 823.000000 1751.000000
1009.000000 1171.000000 1472.000000
1036.000000 802.000000 1838.000000
972.000000 1134.000000 1558.000000
1023.000000 1074.000000 587.000000
1003.000000 1283.000000 1079.000000
956.000000 1040.000000 660.000000
1048.000000 972.000000 1535.000000
1009.000000 804.000000 573.000000
1010.000000 1191.000000 1071.000000
1048.000000 959.000000 1189.000000
1048.000000 953.000000 1366.000000
1042.000000 681.000000 1476.000000
1040.000000 1141.000000 1085.000000
1013.000000 749.000000 851.000000
956.000000 835.000000 1077.000000
1003.000000 1061.000000 1765.000000
1010.000000 1016.000000 1840.000000
954.000000 1072.000000 990.000000
965.000000 600.000000 1035.000000
1048.000000 1080.000000 1263.000000
954.000000 926.000000 1043.000000
1009.000000 756.000000 434.000000
954.000000 997.000000 1210.000000
959.000000 918.000000 369.000000
987.000000 1195.000000 1142.000000
1042.000000 730.000000 1541.000000
1010.000000 763.000000 752.000000
967.000000 1037.000000 176.000000
1031.000000 870.000000 107.000000
1009.000000 720.000000 569.000000
1048.000000 1083.000000 1328.000000
1030.000000 1076.000000 265.000000
970.000000 858.000000 107.000000
954.000000 875.000000 827.000000
1042.000000 883.000000 1867.000000
1006.000000 735.000000 982.000000
1048.000000 905.000000 1429.000000
970.000000 821.000000 160.000000
954.000000 894.000000 1322.000000
954.000000 934.000000 876.000000
954.000000 847.000000 957.000000
955.000000 937.000000 501.000000
954.000000 1069.000000 1063.000000
954.000000 983.000000 1287.000000
955.000000 989.000000 532.000000
1047.000000 982.000000 1736.000000
970.000000 1180.000000 1260.000000
958.000000 829.000000 748.000000
1044.000000 826.000000 1484.000000
963.000000 867.000000 1946.000000
1036.000000 900.000000 300.000000
965.000000 1032.000000 457.000000
1003.000000 1173.000000 829.000000
992.000000 774.000000 705.000000
984.000000 1121.000000 219.000000
956.000000 1074.000000 1511.000000
1048.000000 1013.000000 1112.000000
954.000000 954.000000 679.000000
960.000000 701.000000 1507.000000
954.000000 916.000000 1090.000000
1040.000000 891.000000 449.000000
965.000000 767.000000 904.000000
969.000000 915.000000 166.000000
977.000000 821.000000 68.000000
954.000000 1001.000000 1053.000000
987.000000 944.000000 1970.000000
1003.000000 1232.000000 870.000000
974.000000 774.000000 84.000000
1047.000000 1078.000000 1411.000000
1009.000000 825.000000 300.000000
1048.000000 905.000000 654.000000
1048.000000 957.000000 1098.000000
981.000000 744.000000 1271.000000
971.000000 1065.000000 99.000000
965.000000 1112.000000 1598.000000
1045.000000 1018.000000 528.000000
969.000000 771.000000 1629.000000
1003.000000 1244.000000 1222.000000
1048.000000 899.000000 1558.000000
1044.000000 818.000000 1665.000000
954.000000 1020.000000 910.000000
1003.000000 1268.000000 1014.000000
956.000000 1031.000000 615.000000
1033.000000 836.000000 186.000000
963.000000 1099.000000 788.000000
1049.000000 962.000000 396.000000
973.000000 1116.000000 174.000000
983.000000 759.000000 1576.000000
1048.000000 912.000000 768.000000
1039.000000 896.000000 1942.000000
965.000000 769.000000 1358.000000
987.000000 809.000000 617.000000
1037.000000 1058.000000 1718.000000
975.000000 1155.000000 82.000000
1048.000000 1005.000000 744.000000
967.000000 979.000000 204.000000
954.000000 959.000000 1480.000000
954.000000 970.000000 1525.000000
1043.000000 1100.000000 945.000000
965.000000 991.000000 257.000000
1048.000000 994.000000 1385.000000
954.000000 900.000000 1549.000000
1048.000000 873.000000 622.000000
955.000000 846.000000 1391.000000
1003.000000 1373.000000 1102.000000
1048.000000 1028.000000 894.000000
954.000000 852.000000 1665.000000
992.000000 1101.000000 1681.000000
954.000000 921.000000 1409.000000
1048.000000 909.000000 1476.000000
1009.000000 1200.000000 1216.000000
955.000000 877.000000 599.000000
1033.000000 1010.000000 152.000000
1048.000000 1048.000000 1496.000000
977.000000 858.000000 522.000000
1009.000000 804.000000 440.000000
1043.000000 813.000000 1576.000000
955.000000 991.000000 1712.000000
1048.000000 869.000000 1216.000000
1037.000000 862.000000 534.000000
1009.000000 758.000000 642.000000
968.000000 1005.000000 1832.000000
1048.000000 911.000000 937.000000
1009.000000 739.000000 499.000000
1039.000000 1088.000000 715.000000
1048.000000 949.000000 575.000000
990.000000 1135.000000 772.000000
964.000000 1145.000000 1008.000000
1041.000000 805.000000 1745.000000
1044.000000 822.000000 1328.000000
1048.000000 886.000000 1104.000000
1043.000000 1095.000000 1474.000000
1027.000000 1186.000000 1159.000000
1010.000000 758.000000 1700.000000
954.000000 869.000000 1006.000000
966.000000 876.000000 357.000000
1032.000000 759.000000 925.000000
991.000000 797.000000 227.000000
1003.000000 1268.000000 1171.000000
965.000000 675.000000 1138.000000
1003.000000 1319.000000 1122.000000
957.000000 1110.000000 1142.000000
967.000000 1054.000000 251.000000
1048.000000 953.000000 1574.000000
1042.000000 1091.000000 1562.000000
1006.000000 772.000000 1826.000000
954.000000 991.000000 1108.000000
1048.000000 1038.000000 1340.000000
958.000000 848.000000 1816.000000
1048.000000 885.000000 1281.000000
960.000000 808.000000 1340.000000
962.000000 789.000000 973.000000
954.000000 1063.000000 1421.000000
1037.000000 778.000000 1651.000000
1032.000000 810.000000 103.000000
954.000000 872.000000 1234.000000
956.000000 836.000000 1433.000000
954.000000 1005.000000 691.000000
956.000000 1079.000000 908.000000
1041.000000 1138.000000 1132.000000
959.000000 807.000000 1165.000000
954.000000 1029.000000 984.000000
1039.000000 590.000000 1065.000000
1014.000000 751.000000 1517.000000
1043.000000 829.000000 1806.000000
960.000000 808.000000 1710.000000
1003.000000 1146.000000 707.000000
1003.000000 729.000000 1238.000000
1036.000000 1160.000000 1419.000000
1035.000000 1005.000000 194.000000
1042.000000 716.000000 1452.000000
1006.000000 927.000000 92.000000
954.000000 1017.000000 772.000000
1002.000000 727.000000 1087.000000
1047.000000 1065.000000 862.000000
964.000000 803.000000 693.000000
954.000000 891.000000 1159.000000
954.000000 913.000000 1244.000000
1048.000000 877.000000 1173.000000
962.000000 1144.000000 1106.000000
1003.000000 824.000000 1948.000000
959.000000 1057.000000 1645.000000
1046.000000 831.000000 1712.000000
961.000000 1128.000000 1065.000000
1046.000000 831.000000 868.000000
1042.000000 936.000000 1863.000000
960.000000 805.000000 888.000000
1039.000000 1156.000000 1281.000000
1001.000000 748.000000 1614.000000
1039.000000 964.000000 351.000000
1034.000000 771.000000 811.000000
1026.000000 1035.000000 1789.000000
953.000000 969.000000 402.000000
1003.000000 1130.000000 652.000000
954.000000 945.000000 1558.000000
1041.000000 1110.000000 888.000000
954.000000 928.000000 1631.000000
964.000000 1122.000000 853.000000
1044.000000 1117.000000 1208.000000
954.000000 914.000000 581.000000
970.000000 807.000000 1883.000000
965.000000 761.000000 1147.000000
1026.000000 796.000000 194.000000
1027.000000 1047.000000 404.000000
1042.000000 805.000000 1051.000000
1027.000000 955.000000 121.000000
1049.000000 906.000000 402.000000
1032.000000 1040.000000 326.000000
1048.000000 879.000000 1614.000000
965.000000 630.000000 1071.000000
956.000000 911.000000 461.000000
984.000000 1188.000000 1102.000000
1039.000000 709.000000 1108.000000
1047.000000 1045.000000 735.000000
1009.000000 718.000000 420.000000
1003.000000 1110.000000 601.000000
1033.000000 754.000000 1083.000000
971.000000 753.000000 1043.000000
956.000000 838.000000 811.000000
963.000000 1040.000000 544.000000
1040.000000 876.000000 1907.000000
963.000000 1149.000000 1342.000000
1018.000000 1176.000000 1000.000000
965.000000 704.000000 1104.000000
1003.000000 1218.000000 1020.000000
1048.000000 973.000000 965.000000
1001.000000 1177.000000 121.000000
1035.000000 1114.000000 1608.000000
982.000000 1173.000000 19.000000
1008.000000 809.000000 263.000000
993.000000 862.000000 416.000000
1031.000000 1072.000000 91.000000
1041.000000 794.000000 998.000000
1048.000000 944.000000 1226.000000
1047.000000 974.000000 434.000000
1042.000000 773.000000 1535.000000
1009.000000 677.000000 449.000000
978.000000 736.000000 32.000000
1039.000000 638.000000 1091.000000
965.000000 681.000000 1059.000000
1011.000000 860.000000 499.000000
960.000000 925.000000 1856.000000
962.000000 822.000000 658.000000
1025.000000 1139.000000 829.000000
956.000000 978.000000 445.000000
954.000000 992.000000 1456.000000
1048.000000 897.000000 1344.000000
1048.000000 1011.000000 1277.000000
1042.000000 755.000000 1460.000000
1048.000000 1013.000000 1035.000000
1028.000000 838.000000 565.000000
954.000000 952.000000 638.000000
1044.000000 825.000000 801.000000
1037.000000 1161.000000 1336.000000
1011.000000 740.000000 1348.000000
961.000000 856.000000 1893.000000
1045.000000 1020.000000 1712.000000
967.000000 997.000000 335.000000
969.000000 754.000000 1222.000000
954.000000 1033.000000 1468.000000
1011.000000 1110.000000 259.000000
960.000000 1110.000000 1472.000000
962.000000 1144.000000 1187.000000
961.000000 792.000000 1020.000000
1027.000000 848.000000 1978.000000
962.000000 794.000000 1551.000000
954.000000 923.000000 914.000000
954.000000 891.000000 1618.000000
971.000000 1164.000000 1421.000000
954.000000 1003.000000 1606.000000
1041.000000 795.000000 937.000000
954.000000 1019.000000 1366.000000
957.000000 826.000000 1039.000000
1046.000000 829.000000 1108.000000
988.000000 1196.000000 1291.000000
1048.000000 1037.000000 1590.000000
954.000000 1030.000000 1291.000000
996.000000 1127.000000 1627.000000
1035.000000 1075.000000 151.000000
954.000000 884.000000 1383.000000
968.000000 795.000000 1846.000000
976.000000 769.000000 780.000000
1026.000000 1086.000000 1692.000000
1048.000000 860.000000 1358.000000
1025.000000 959.000000 1940.000000
1009.000000 815.000000 491.000000
1003.000000 1239.000000 1142.000000
1035.000000 1062.000000 215.000000
1048.000000 1019.000000 1665.000000
1048.000000 1076.000000 1171.000000
977.000000 1153.000000 1494.000000
962.000000 1084.000000 717.000000
995.000000 1046.000000 477.000000
1041.000000 885.000000 371.000000
957.000000 1096.000000 1378.000000
1003.000000 1339.000000 1043.000000
954.000000 1071.000000 1340.000000
954.000000 1028.000000 1132.000000
954.000000 1013.000000 872.000000
969.000000 1000.000000 166.000000
1044.000000 830.000000 760.000000
965.000000 619.000000 1110.000000
1040.000000 1131.000000 1022.000000
964.000000 877.000000 1983.000000
954.000000 956.000000 1366.000000
1048.000000 878.000000 750.000000
1046.000000 1088.000000 1016.000000
958.000000 819.000000 1250.000000
966.000000 916.000000 286.000000
1041.000000 1127.000000 1401.000000
954.000000 858.000000 1309.000000
1002.000000 739.000000 109.000000
964.000000 1022.000000 1771.000000
1048.000000 943.000000 843.000000
955.000000 887.000000 1696.000000
971.000000 767.000000 819.000000
1048.000000 874.000000 701.000000
969.000000 1035.000000 326.000000
1048.000000 1010.000000 1533.000000
1048.000000 860.000000 996.000000
993.000000 1103.000000 50.000000
1008.000000 744.000000 1480.000000
955.000000 910.000000 528.000000
970.000000 934.000000 133.000000
1048.000000 887.000000 1679.000000
1037.000000 892.000000 261.000000
1048.000000 993.000000 565.000000
958.000000 1089.000000 872.000000
1013.000000 919.000000 1997.000000
983.000000 1114.000000 709.000000
