ply
format ascii 1.0
element vertex 800
property float x
property float y
property float z
end_header
1006.000000 835.000000 1336.000000
704.000000 1227.000000 1.000000
1915.000000 1062.000000 701.000000
109.000000 969.000000 818.000000
1150.000000 1003.000000 593.000000
999.000000 863.000000 2001.000000
1308.000000 1226.000000 40.000000
669.000000 878.000000 878.000000
1488.000000 896.000000 1038.000000
999.000000 943.000000 182.000000
1031.000000 1043.000000 983.000000
984.000000 1025.000000 1661.000000
1195.000000 752.000000 962.000000
824.000000 977.000000 607.000000
369.000000 901.000000 996.000000
1792.000000 906.000000 949.000000
1002.000000 1248.000000 266.000000
811.000000 885.000000 1129.000000
1004.000000 856.000000 780.000000
1362.000000 890.000000 793.000000
1008.000000 765.000000 1746.000000
978.000000 1021.000000 416.000000
1609.000000 896.000000 782.000000
975.000000 1045.000000 1219.000000
1002.000000 1229.000000 26.000000
846.000000 1038.000000 835.000000
1127.000000 885.000000 1142.000000
1051.000000 1036.000000 1440.000000
458.000000 896.000000 784.000000
857.000000 763.000000 941.000000
1183.000000 1027.000000 815.000000
1058.000000 846.000000 1549.000000
566.000000 893.000000 1053.000000
829.000000 1227.000000 161.000000
890.000000 925.000000 1476.000000
989.000000 1037.000000 700.000000
1294.000000 899.000000 1042.000000
993.000000 894.000000 563.000000
1027.000000 845.000000 979.000000
1159.000000 1223.000000 160.000000
1007.000000 936.000000 1826.000000
279.000000 897.000000 834.000000
1849.000000 908.000000 775.000000
1009.000000 1114.000000 156.000000
1108.000000 966.000000 1294.000000
917.000000 869.000000 1642.000000
823.000000 873.000000 805.000000
968.000000 841.000000 1170.000000
1627.000000 892.000000 947.000000
1152.000000 869.000000 853.000000
1101.000000 912.000000 1693.000000
900.000000 947.000000 1004.000000
890.000000 947.000000 1316.000000
1487.000000 905.000000 883.000000
87.000000 1063.000000 701.000000
1039.000000 991.000000 839.000000
1005.000000 1069.000000 555.000000
711.000000 900.000000 1020.000000
174.000000 907.000000 936.000000
529.000000 905.000000 912.000000
1012.000000 1106.000000 302.000000
1099.000000 986.000000 1568.000000
1077.000000 1019.000000 1119.000000
1105.000000 902.000000 1424.000000
1158.000000 898.000000 999.000000
1135.000000 936.000000 717.000000
1004.000000 922.000000 321.000000
1279.000000 900.000000 904.000000
1172.000000 1227.000000 25.000000
838.000000 1227.000000 26.000000
952.000000 1034.000000 1531.000000
928.000000 864.000000 890.000000
935.000000 917.000000 684.000000
1730.000000 913.000000 832.000000
949.000000 1036.000000 1090.000000
805.000000 899.000000 932.000000
957.000000 1232.000000 146.000000
1390.000000 880.000000 960.000000
805.000000 974.000000 732.000000
967.000000 1042.000000 1345.000000
974.000000 835.000000 1458.000000
893.000000 956.000000 1191.000000
582.000000 894.000000 791.000000
928.000000 863.000000 1766.000000
1057.000000 975.000000 497.000000
936.000000 1018.000000 913.000000
918.000000 947.000000 800.000000
390.000000 909.000000 880.000000
1075.000000 863.000000 1245.000000
1005.000000 1016.000000 92.000000
1128.000000 967.000000 910.000000
942.000000 854.000000 1058.000000
973.000000 847.000000 1890.000000
1044.000000 891.000000 665.000000
1249.000000 883.000000 796.000000
1026.000000 835.000000 1658.000000
938.000000 987.000000 595.000000
731.000000 1227.000000 109.000000
900.000000 973.000000 1608.000000
1063.000000 854.000000 1778.000000
189.000000 909.000000 775.000000
1045.000000 987.000000 614.000000
1061.000000 1232.000000 116.000000
980.000000 1010.000000 264.000000
1874.000000 919.000000 879.000000
1901.000000 1001.000000 789.000000
921.000000 956.000000 1713.000000
1000.000000 917.000000 428.000000
1046.000000 847.000000 1084.000000
928.000000 862.000000 1266.000000
281.000000 911.000000 939.000000
1049.000000 860.000000 875.000000
474.000000 903.000000 1003.000000
836.000000 868.000000 1027.000000
921.000000 1015.000000 1434.000000
918.000000 869.000000 1378.000000
620.000000 902.000000 965.000000
1099.000000 977.000000 1027.000000
1226.000000 883.000000 1116.000000
1001.000000 1120.000000 402.000000
945.000000 968.000000 496.000000
1031.000000 972.000000 1734.000000
886.000000 1005.000000 681.000000
1391.000000 891.000000 1066.000000
1509.000000 893.000000 786.000000
927.000000 858.000000 1543.000000
725.000000 888.000000 796.000000
1043.000000 965.000000 743.000000
1072.000000 1023.000000 1220.000000
1250.000000 1228.000000 120.000000
1163.000000 1026.000000 689.000000
360.000000 901.000000 779.000000
964.000000 1032.000000 794.000000
875.000000 947.000000 887.000000
895.000000 927.000000 1099.000000
1077.000000 1224.000000 210.000000
1061.000000 1030.000000 1346.000000
1116.000000 945.000000 809.000000
1579.000000 908.000000 869.000000
1090.000000 877.000000 1336.000000
1079.000000 995.000000 1658.000000
990.000000 1163.000000 233.000000
1536.000000 888.000000 959.000000
1030.000000 1008.000000 341.000000
1000.000000 1149.000000 72.000000
998.000000 1189.000000 337.000000
1109.000000 913.000000 1514.000000
1057.000000 877.000000 1873.000000
805.000000 958.000000 829.000000
919.000000 1222.000000 65.000000
1027.000000 1038.000000 1582.000000
1105.000000 901.000000 1603.000000
1111.000000 943.000000 1208.000000
1402.000000 881.000000 872.000000
941.000000 1027.000000 1001.000000
1709.000000 912.000000 919.000000
908.000000 863.000000 976.000000
1240.000000 872.000000 978.000000
1007.000000 1030.000000 180.000000
1115.000000 1018.000000 761.000000
1114.000000 865.000000 932.000000
1190.000000 950.000000 853.000000
153.000000 903.000000 853.000000
648.000000 889.000000 1077.000000
1046.000000 842.000000 1411.000000
109.000000 988.000000 735.000000
730.000000 887.000000 1103.000000
922.000000 1016.000000 1278.000000
724.000000 874.000000 941.000000
886.000000 1019.000000 764.000000
1103.000000 983.000000 1402.000000
1196.000000 958.000000 770.000000
1016.000000 1044.000000 901.000000
1007.000000 1075.000000 472.000000
1104.000000 902.000000 1062.000000
799.000000 801.000000 986.000000
1055.000000 850.000000 1166.000000
812.000000 999.000000 900.000000
1084.000000 870.000000 801.000000
761.000000 873.000000 868.000000
1100.000000 989.000000 1486.000000
1092.000000 1227.000000 41.000000
1191.000000 898.000000 918.000000
890.000000 944.000000 1397.000000
991.000000 837.000000 1811.000000
466.000000 888.000000 865.000000
904.000000 869.000000 812.000000
1088.000000 991.000000 682.000000
1006.000000 1048.000000 1145.000000
937.000000 897.000000 1839.000000
1047.000000 981.000000 417.000000
1000.000000 836.000000 1243.000000
1026.000000 1046.000000 1064.000000
1178.000000 957.000000 652.000000
989.000000 832.000000 1586.000000
1655.000000 893.000000 851.000000
966.000000 968.000000 860.000000
877.000000 940.000000 732.000000
595.000000 903.000000 869.000000
1807.000000 901.000000 842.000000
964.000000 966.000000 738.000000
1012.000000 900.000000 1933.000000
899.000000 1226.000000 198.000000
1113.000000 1014.000000 848.000000
1174.000000 827.000000 971.000000
902.000000 882.000000 1162.000000
1023.000000 1045.000000 1280.000000
898.000000 979.000000 1531.000000
852.000000 868.000000 878.000000
926.000000 1019.000000 1162.000000
991.000000 1085.000000 231.000000
1183.000000 1017.000000 891.000000
984.000000 834.000000 1722.000000
438.000000 889.000000 936.000000
962.000000 977.000000 356.000000
1462.000000 904.000000 967.000000
1436.000000 901.000000 807.000000
1058.000000 933.000000 561.000000
1318.000000 901.000000 970.000000
988.000000 1036.000000 622.000000
1098.000000 930.000000 968.000000
223.000000 914.000000 880.000000
1022.000000 1044.000000 1508.000000
547.000000 884.000000 981.000000
1035.000000 1033.000000 772.000000
765.000000 1223.000000 43.000000
1172.000000 870.000000 1067.000000
988.000000 869.000000 708.000000
1080.000000 924.000000 1763.000000
1073.000000 858.000000 1478.000000
949.000000 939.000000 1780.000000
835.000000 944.000000 672.000000
1589.000000 900.000000 1009.000000
978.000000 885.000000 634.000000
1074.000000 1010.000000 934.000000
1307.000000 877.000000 840.000000
1108.000000 953.000000 1123.000000
652.000000 881.000000 807.000000
1682.000000 899.000000 779.000000
1021.000000 911.000000 498.000000
1062.000000 894.000000 736.000000
968.000000 978.000000 661.000000
1010.000000 1187.000000 167.000000
1776.000000 909.000000 776.000000
1093.000000 862.000000 1003.000000
936.000000 893.000000 752.000000
984.000000 1046.000000 1416.000000
1088.000000 921.000000 872.000000
1243.000000 1227.000000 10.000000
773.000000 871.000000 993.000000
1006.000000 1253.000000 194.000000
910.000000 1001.000000 1359.000000
855.000000 1232.000000 95.000000
1144.000000 1221.000000 90.000000
895.000000 906.000000 1585.000000
984.000000 851.000000 848.000000
1005.000000 942.000000 253.000000
531.000000 904.000000 839.000000
991.000000 845.000000 918.000000
992.000000 1065.000000 358.000000
1224.000000 872.000000 861.000000
905.000000 987.000000 1064.000000
946.000000 1025.000000 1600.000000
893.000000 920.000000 1252.000000
782.000000 897.000000 1059.000000
1344.000000 878.000000 909.000000
998.000000 1247.000000 93.000000
997.000000 1084.000000 95.000000
322.000000 894.000000 887.000000
900.000000 995.000000 845.000000
1067.000000 854.000000 1709.000000
1181.000000 883.000000 793.000000
908.000000 921.000000 940.000000
1045.000000 1014.000000 552.000000
908.000000 889.000000 1707.000000
977.000000 1026.000000 509.000000
916.000000 870.000000 1447.000000
1684.000000 903.000000 981.000000
125.000000 929.000000 763.000000
864.000000 868.000000 1088.000000
1227.000000 898.000000 1039.000000
817.000000 1023.000000 776.000000
1112.000000 937.000000 1355.000000
997.000000 832.000000 1520.000000
1887.000000 941.000000 818.000000
820.000000 1008.000000 675.000000
985.000000 838.000000 1106.000000
855.000000 929.000000 794.000000
974.000000 837.000000 1393.000000
835.000000 851.000000 964.000000
954.000000 963.000000 432.000000
896.000000 930.000000 1656.000000
944.000000 938.000000 553.000000
967.000000 1037.000000 860.000000
884.000000 968.000000 628.000000
1185.000000 1020.000000 749.000000
253.000000 905.000000 776.000000
957.000000 1225.000000 227.000000
873.000000 1018.000000 898.000000
1001.000000 839.000000 1039.000000
1106.000000 969.000000 624.000000
1765.000000 898.000000 892.000000
927.000000 997.000000 1660.000000
1001.000000 960.000000 121.000000
406.000000 891.000000 821.000000
794.000000 1222.000000 107.000000
1356.000000 879.000000 1015.000000
1066.000000 852.000000 1611.000000
982.000000 916.000000 1880.000000
1884.000000 955.000000 750.000000
1428.000000 884.000000 1016.000000
363.000000 892.000000 934.000000
651.000000 879.000000 1014.000000
1105.000000 905.000000 1280.000000
975.000000 988.000000 1712.000000
1037.000000 1027.000000 661.000000
1218.000000 1222.000000 67.000000
937.000000 931.000000 622.000000
944.000000 850.000000 1325.000000
917.000000 915.000000 853.000000
977.000000 1043.000000 952.000000
1147.000000 783.000000 937.000000
892.000000 899.000000 1042.000000
1064.000000 911.000000 1822.000000
1097.000000 994.000000 1172.000000
1078.000000 1018.000000 1281.000000
1053.000000 968.000000 894.000000
966.000000 848.000000 988.000000
1024.000000 941.000000 377.000000
1031.000000 1019.000000 462.000000
1903.000000 1008.000000 727.000000
913.000000 989.000000 962.000000
1193.000000 967.000000 710.000000
897.000000 1220.000000 137.000000
964.000000 838.000000 1665.000000
1024.000000 992.000000 225.000000
997.000000 777.000000 1804.000000
1052.000000 847.000000 1299.000000
1032.000000 986.000000 285.000000
966.000000 1041.000000 1473.000000
1035.000000 896.000000 606.000000
913.000000 1005.000000 1219.000000
1529.000000 888.000000 843.000000
1096.000000 886.000000 1194.000000
900.000000 981.000000 1124.000000
671.000000 901.000000 934.000000
1106.000000 958.000000 1620.000000
697.000000 1226.000000 60.000000
858.000000 795.000000 991.000000
972.000000 859.000000 1948.000000
1009.000000 1047.000000 301.000000
582.000000 882.000000 924.000000
347.000000 910.000000 836.000000
1072.000000 1020.000000 1528.000000
1283.000000 889.000000 1099.000000
1075.000000 988.000000 792.000000
847.000000 1032.000000 722.000000
929.000000 859.000000 1115.000000
1435.000000 904.000000 915.000000
1012.000000 1192.000000 280.000000
1151.000000 779.000000 995.000000
1074.000000 937.000000 699.000000
903.000000 891.000000 1323.000000
1049.000000 1019.000000 717.000000
220.000000 900.000000 824.000000
1014.000000 1042.000000 825.000000
1822.000000 901.000000 900.000000
863.000000 898.000000 984.000000
1036.000000 970.000000 669.000000
799.000000 764.000000 942.000000
929.000000 861.000000 1208.000000
995.000000 1193.000000 112.000000
968.000000 975.000000 800.000000
1101.000000 1231.000000 157.000000
969.000000 1026.000000 567.000000
1065.000000 1025.000000 1028.000000
974.000000 967.000000 301.000000
493.000000 886.000000 952.000000
1056.000000 859.000000 932.000000
857.000000 1018.000000 631.000000
1025.000000 848.000000 1914.000000
896.000000 903.000000 1528.000000
1336.000000 887.000000 1079.000000
1036.000000 1028.000000 1637.000000
1080.000000 963.000000 1705.000000
714.000000 900.000000 852.000000
1537.000000 887.000000 902.000000
992.000000 1134.000000 348.000000
878.000000 866.000000 928.000000
940.000000 1004.000000 704.000000
227.000000 906.000000 955.000000
899.000000 983.000000 1475.000000
91.000000 1038.000000 753.000000
810.000000 897.000000 854.000000
990.000000 1047.000000 1021.000000
1738.000000 904.000000 966.000000
1193.000000 1231.000000 116.000000
971.000000 922.000000 476.000000
1055.000000 1035.000000 1168.000000
514.000000 894.000000 787.000000
1029.000000 1003.000000 1688.000000
1132.000000 1015.000000 644.000000
1009.000000 1067.000000 416.000000
1113.000000 940.000000 1464.000000
1099.000000 990.000000 1343.000000
1357.000000 901.000000 847.000000
820.000000 947.000000 882.000000
1043.000000 941.000000 456.000000
1067.000000 931.000000 635.000000
1042.000000 847.000000 1829.000000
1087.000000 872.000000 1658.000000
969.000000 1043.000000 1290.000000
1099.000000 962.000000 750.000000
1656.000000 910.000000 904.000000
1103.000000 866.000000 878.000000
1096.000000 865.000000 1102.000000
926.000000 967.000000 897.000000
307.000000 909.000000 789.000000
1149.000000 929.000000 769.000000
1015.000000 1046.000000 1370.000000
1040.000000 1222.000000 67.000000
1060.000000 1021.000000 879.000000
1182.000000 964.000000 906.000000
422.000000 893.000000 988.000000
317.000000 905.000000 979.000000
1535.000000 902.000000 1012.000000
596.000000 882.000000 1009.000000
1578.000000 908.000000 930.000000
1102.000000 985.000000 1244.000000
1138.000000 934.000000 857.000000
1098.000000 986.000000 1080.000000
938.000000 850.000000 1595.000000
957.000000 866.000000 804.000000
1559.000000 905.000000 802.000000
1013.000000 1211.000000 227.000000
896.000000 973.000000 1259.000000
1238.000000 872.000000 924.000000
1000.000000 954.000000 1774.000000
1025.000000 835.000000 1474.000000
514.000000 894.000000 1037.000000
1141.000000 898.000000 897.000000
1035.000000 859.000000 823.000000
1078.000000 919.000000 780.000000
1131.000000 893.000000 809.000000
1112.000000 935.000000 1562.000000
1086.000000 968.000000 848.000000
1294.000000 1227.000000 91.000000
1173.000000 891.000000 1117.000000
1131.000000 1019.000000 899.000000
1155.000000 952.000000 605.000000
776.000000 895.000000 814.000000
1045.000000 1232.000000 166.000000
866.000000 896.000000 836.000000
805.000000 1008.000000 849.000000
1003.000000 813.000000 1766.000000
1054.000000 847.000000 1359.000000
934.000000 999.000000 767.000000
960.000000 1008.000000 463.000000
1476.000000 885.000000 836.000000
918.000000 966.000000 668.000000
1071.000000 1015.000000 1601.000000
1096.000000 881.000000 1556.000000
1128.000000 948.000000 666.000000
942.000000 1031.000000 1389.000000
946.000000 858.000000 940.000000
1206.000000 798.000000 941.000000
939.000000 850.000000 1493.000000
689.000000 876.000000 979.000000
913.000000 911.000000 1754.000000
995.000000 1048.000000 132.000000
1026.000000 1045.000000 1211.000000
1084.000000 1002.000000 984.000000
1052.000000 852.000000 1033.000000
274.000000 913.000000 887.000000
1023.000000 1020.000000 391.000000
974.000000 940.000000 390.000000
810.000000 952.000000 778.000000
1206.000000 793.000000 992.000000
1493.000000 885.000000 931.000000
1011.000000 1125.000000 206.000000
1135.000000 866.000000 1032.000000
137.000000 911.000000 901.000000
943.000000 988.000000 543.000000
978.000000 837.000000 1289.000000
126.000000 919.000000 813.000000
1149.000000 898.000000 949.000000
1703.000000 895.000000 871.000000
626.000000 902.000000 909.000000
978.000000 1013.000000 322.000000
1015.000000 837.000000 1194.000000
1286.000000 874.000000 999.000000
697.000000 880.000000 1064.000000
1857.000000 904.000000 834.000000
1198.000000 869.000000 1010.000000
990.000000 1147.000000 283.000000
1203.000000 981.000000 815.000000
1133.000000 1034.000000 805.000000
1088.000000 874.000000 1386.000000
1003.000000 1252.000000 144.000000
1071.000000 1023.000000 1396.000000
990.000000 1039.000000 750.000000
1612.000000 909.000000 831.000000
1198.000000 899.000000 969.000000
758.000000 900.000000 915.000000
1093.000000 909.000000 921.000000
894.000000 901.000000 895.000000
1283.000000 874.000000 947.000000
1102.000000 927.000000 1019.000000
1262.000000 898.000000 842.000000
709.000000 901.000000 902.000000
813.000000 898.000000 981.000000
860.000000 887.000000 1136.000000
1009.000000 1039.000000 229.000000
945.000000 855.000000 1813.000000
923.000000 941.000000 750.000000
982.000000 992.000000 199.000000
1119.000000 1016.000000 711.000000
893.000000 931.000000 1148.000000
940.000000 851.000000 1708.000000
1636.000000 903.000000 994.000000
1029.000000 918.000000 1866.000000
478.000000 906.000000 909.000000
1386.000000 903.000000 916.000000
897.000000 905.000000 1205.000000
956.000000 1221.000000 97.000000
1027.000000 862.000000 1961.000000
1165.000000 931.000000 815.000000
1157.000000 1037.000000 855.000000
882.000000 943.000000 834.000000
871.000000 996.000000 590.000000
990.000000 1001.000000 145.000000
920.000000 1009.000000 1562.000000
926.000000 1019.000000 1493.000000
1029.000000 1029.000000 596.000000
995.000000 1143.000000 120.000000
829.000000 896.000000 1070.000000
898.000000 898.000000 1411.000000
999.000000 1197.000000 62.000000
1179.000000 1005.000000 648.000000
993.000000 1076.000000 182.000000
1612.000000 891.000000 900.000000
98.000000 1000.000000 783.000000
1025.000000 1027.000000 509.000000
1108.000000 925.000000 1162.000000
1043.000000 940.000000 1790.000000
972.000000 910.000000 523.000000
748.000000 873.000000 1034.000000
1031.000000 960.000000 332.000000
897.000000 992.000000 726.000000
1014.000000 837.000000 1145.000000
1091.000000 887.000000 1734.000000
804.000000 870.000000 894.000000
911.000000 993.000000 1017.000000
1089.000000 1005.000000 1442.000000
638.000000 901.000000 848.000000
1083.000000 984.000000 585.000000
1030.000000 837.000000 1735.000000
1015.000000 841.000000 1868.000000
1728.000000 910.000000 784.000000
992.000000 1036.000000 1614.000000
485.000000 905.000000 825.000000
1263.000000 1231.000000 54.000000
963.000000 1026.000000 661.000000
738.000000 900.000000 978.000000
1443.000000 904.000000 864.000000
982.000000 1041.000000 1568.000000
809.000000 1231.000000 63.000000
1297.000000 887.000000 795.000000
1188.000000 897.000000 841.000000
1109.000000 964.000000 1525.000000
965.000000 1043.000000 1173.000000
1024.000000 866.000000 738.000000
1107.000000 919.000000 1647.000000
1097.000000 1221.000000 88.000000
959.000000 886.000000 1912.000000
832.000000 938.000000 719.000000
1083.000000 912.000000 826.000000
891.000000 949.000000 1567.000000
1102.000000 894.000000 1471.000000
993.000000 1048.000000 1100.000000
884.000000 1024.000000 812.000000
982.000000 1019.000000 368.000000
940.000000 1014.000000 830.000000
1070.000000 1024.000000 1481.000000
1038.000000 1042.000000 1109.000000
554.000000 884.000000 879.000000
1397.000000 882.000000 826.000000
1011.000000 1046.000000 1461.000000
931.000000 1023.000000 1323.000000
1318.000000 901.000000 878.000000
932.000000 1023.000000 1049.000000
434.000000 908.000000 894.000000
913.000000 862.000000 1023.000000
883.000000 1228.000000 36.000000
1068.000000 1025.000000 1074.000000
894.000000 912.000000 1363.000000
1094.000000 969.000000 941.000000
1012.000000 1121.000000 252.000000
895.000000 866.000000 857.000000
964.000000 1226.000000 52.000000
612.000000 898.000000 1049.000000
775.000000 878.000000 1101.000000
1080.000000 864.000000 1433.000000
843.000000 806.000000 949.000000
1496.000000 887.000000 993.000000
896.000000 943.000000 1055.000000
850.000000 984.000000 877.000000
880.000000 949.000000 687.000000
1094.000000 993.000000 892.000000
849.000000 898.000000 913.000000
1247.000000 876.000000 1074.000000
961.000000 903.000000 595.000000
1131.000000 866.000000 978.000000
1008.000000 1047.000000 1323.000000
572.000000 883.000000 834.000000
1104.000000 909.000000 1110.000000
967.000000 840.000000 1772.000000
121.000000 935.000000 856.000000
866.000000 882.000000 791.000000
816.000000 759.000000 985.000000
1035.000000 968.000000 799.000000
923.000000 897.000000 1796.000000
903.000000 990.000000 1310.000000
769.000000 871.000000 948.000000
891.000000 954.000000 1441.000000
1111.000000 942.000000 1255.000000
901.000000 987.000000 1405.000000
838.000000 931.000000 843.000000
1686.000000 911.000000 822.000000
180.000000 901.000000 892.000000
907.000000 882.000000 1490.000000
1153.000000 984.000000 877.000000
1047.000000 871.000000 776.000000
974.000000 1220.000000 186.000000
940.000000 865.000000 847.000000
1201.000000 993.000000 858.000000
1062.000000 974.000000 542.000000
1646.000000 893.000000 807.000000
1184.000000 870.000000 884.000000
1106.000000 947.000000 1060.000000
833.000000 1031.000000 877.000000
509.000000 886.000000 876.000000
1104.000000 903.000000 1235.000000
954.000000 963.000000 1742.000000
963.000000 930.000000 1821.000000
177.000000 916.000000 817.000000
1913.000000 1048.000000 743.000000
1034.000000 836.000000 1585.000000
1814.000000 916.000000 801.000000
991.000000 1078.000000 275.000000
1088.000000 861.000000 1058.000000
1052.000000 936.000000 517.000000
992.000000 832.000000 1630.000000
1053.000000 1022.000000 811.000000
1390.000000 902.000000 999.000000
972.000000 867.000000 749.000000
1004.000000 833.000000 1425.000000
1112.000000 940.000000 1399.000000
400.000000 908.000000 953.000000
1141.000000 894.000000 1087.000000
801.000000 996.000000 807.000000
1038.000000 1038.000000 940.000000
922.000000 904.000000 792.000000
938.000000 852.000000 1413.000000
1017.000000 835.000000 1379.000000
973.000000 1041.000000 908.000000
324.000000 911.000000 930.000000
965.000000 837.000000 1550.000000
1287.000000 1229.000000 2.000000
1772.000000 914.000000 819.000000
926.000000 963.000000 712.000000
964.000000 885.000000 675.000000
958.000000 844.000000 1236.000000
246.000000 898.000000 917.000000
995.000000 1068.000000 513.000000
1054.000000 849.000000 1210.000000
1135.000000 1230.000000 47.000000
1030.000000 907.000000 541.000000
939.000000 1023.000000 956.000000
1042.000000 983.000000 374.000000
993.000000 1038.000000 455.000000
1100.000000 958.000000 1664.000000
900.000000 863.000000 1064.000000
1090.000000 874.000000 1514.000000
1673.000000 894.000000 940.000000
859.000000 955.000000 594.000000
929.000000 963.000000 839.000000
1205.000000 895.000000 1078.000000
692.000000 878.000000 822.000000
999.000000 1225.000000 304.000000
949.000000 860.000000 1857.000000
1067.000000 1001.000000 752.000000
963.000000 1042.000000 1130.000000
940.000000 999.000000 636.000000
931.000000 1007.000000 872.000000
924.000000 1017.000000 1119.000000
1088.000000 867.000000 1145.000000
1078.000000 866.000000 843.000000
892.000000 961.000000 1358.000000
1116.000000 898.000000 849.000000
1353.000000 902.000000 943.000000
942.000000 1032.000000 1244.000000
904.000000 909.000000 982.000000
1160.000000 868.000000 921.000000
983.000000 975.000000 238.000000
958.000000 987.000000 397.000000
1039.000000 842.000000 1259.000000
443.000000 907.000000 835.000000
1579.000000 891.000000 969.000000
1214.000000 873.000000 818.000000
1004.000000 875.000000 666.000000
803.000000 898.000000 1022.000000
1174.000000 938.000000 734.000000
992.000000 1149.000000 172.000000
1238.000000 899.000000 890.000000
1166.000000 940.000000 689.000000
1180.000000 897.000000 1036.000000
578.000000 903.000000 960.000000
416.000000 898.000000 781.000000
1314.000000 901.000000 928.000000
1071.000000 975.000000 646.000000
1081.000000 890.000000 1789.000000
817.000000 976.000000 648.000000
402.000000 890.000000 915.000000
874.000000 865.000000 1009.000000
870.000000 1230.000000 167.000000
1010.000000 847.000000 881.000000
1048.000000 841.000000 1509.000000
890.000000 942.000000 1514.000000
886.000000 946.000000 772.000000
1056.000000 851.000000 1124.000000
613.000000 882.000000 821.000000
1262.000000 874.000000 1034.000000
1104.000000 964.000000 709.000000
849.000000 946.000000 633.000000
1133.000000 1231.000000 129.000000
1147.000000 1033.000000 736.000000
1171.000000 868.000000 967.000000
1086.000000 862.000000 962.000000
913.000000 994.000000 806.000000
1152.000000 752.000000 964.000000
1108.000000 914.000000 1320.000000
1754.000000 912.000000 929.000000
1085.000000 872.000000 1294.000000
855.000000 1037.000000 784.000000
1430.000000 882.000000 951.000000
746.000000 1228.000000 7.000000
1178.000000 1231.000000 66.000000
1023.000000 1220.000000 128.000000
1004.000000 855.000000 1761.000000
948.000000 890.000000 713.000000
904.000000 891.000000 1282.000000
511.000000 904.000000 984.000000
976.000000 1046.000000 1061.000000
896.000000 1232.000000 98.000000
968.000000 974.000000 620.000000
798.000000 1227.000000 18.000000
1044.000000 884.000000 1911.000000
934.000000 1220.000000 178.000000
954.000000 1022.000000 740.000000
1010.000000 1101.000000 364.000000
1046.000000 1039.000000 1247.000000
762.000000 1231.000000 83.000000
1277.000000 875.000000 872.000000
1252.000000 900.000000 951.000000
985.000000 943.000000 351.000000
739.000000 875.000000 832.000000
1000.000000 1064.000000 595.000000
1067.000000 949.000000 598.000000
1026.000000 1044.000000 1409.000000
735.000000 897.000000 1064.000000
1036.000000 942.000000 416.000000
909.000000 883.000000 1237.000000
1051.000000 984.000000 458.000000
1040.000000 881.000000 704.000000
1011.000000 1153.000000 317.000000
856.000000 755.000000 981.000000
892.000000 934.000000 1616.000000
1093.000000 949.000000 901.000000
550.000000 902.000000 1017.000000
811.000000 971.000000 690.000000
1026.000000 839.000000 1791.000000
802.000000 805.000000 946.000000
939.000000 1030.000000 1201.000000
907.000000 961.000000 932.000000
1123.000000 974.000000 586.000000
877.000000 1027.000000 859.000000
1447.000000 894.000000 1050.000000
901.000000 985.000000 1164.000000
814.000000 1014.000000 737.000000
907.000000 963.000000 1676.000000
1322.000000 900.000000 1012.000000
193.000000 901.000000 854.000000
1028.000000 1039.000000 863.000000
1017.000000 834.000000 1697.000000
659.000000 902.000000 974.000000
118.000000 965.000000 779.000000
880.000000 980.000000 909.000000
1353.000000 878.000000 975.000000
990.000000 1047.000000 1256.000000
