ply
format ascii 1.0
element vertex 858
property float x
property float y
property float z
end_header
787.000000 749.000000 961.000000
983.000000 1993.000000 1035.000000
1363.000000 7.000000 940.000000
1367.000000 1295.000000 1007.000000
635.000000 1419.000000 863.000000
835.000000 189.000000 1017.000000
1227.000000 517.000000 1112.000000
916.000000 1170.000000 1187.000000
1048.000000 1580.000000 886.000000
1041.000000 1028.000000 839.000000
1147.000000 877.000000 1165.000000
1143.000000 278.000000 859.000000
906.000000 490.000000 1110.000000
872.000000 1477.000000 1128.000000
1088.000000 707.000000 918.000000
918.000000 1307.000000 847.000000
772.000000 1044.000000 963.000000
1155.000000 1449.000000 1118.000000
954.000000 1744.000000 1165.000000
1159.000000 1135.000000 1072.000000
866.000000 901.000000 1171.000000
985.000000 7.000000 1106.000000
1157.000000 1352.000000 892.000000
805.000000 1584.000000 920.000000
762.000000 1277.000000 1031.000000
1173.000000 280.000000 1100.000000
948.000000 1801.000000 890.000000
1151.000000 1748.000000 1041.000000
1045.000000 478.000000 924.000000
936.000000 836.000000 825.000000
825.000000 391.000000 932.000000
720.000000 1224.000000 827.000000
900.000000 699.000000 1130.000000
728.000000 569.000000 1043.000000
740.000000 1065.000000 1165.000000
1230.000000 1572.000000 975.000000
1124.000000 899.000000 967.000000
1217.000000 94.000000 835.000000
1203.000000 709.000000 1078.000000
995.000000 300.000000 989.000000
1076.000000 1283.000000 1185.000000
888.000000 587.000000 938.000000
712.000000 893.000000 1060.000000
1039.000000 1192.000000 936.000000
1017.000000 1014.000000 1153.000000
878.000000 1121.000000 817.000000
1023.000000 1574.000000 1072.000000
859.000000 1853.000000 1045.000000
1260.000000 1263.000000 1147.000000
1001.000000 834.000000 1078.000000
839.000000 1417.000000 959.000000
1321.000000 1453.000000 1064.000000
1189.000000 407.000000 985.000000
916.000000 1688.000000 1011.000000
1232.000000 1216.000000 948.000000
922.000000 1332.000000 1181.000000
1165.000000 575.000000 971.000000
813.000000 899.000000 908.000000
1039.000000 1853.000000 1086.000000
1021.000000 1427.000000 857.000000
777.000000 1370.000000 821.000000
641.000000 1289.000000 940.000000
1021.000000 606.000000 1007.000000
1102.000000 195.000000 997.000000
884.000000 48.000000 1003.000000
744.000000 723.000000 1102.000000
750.000000 422.000000 1056.000000
954.000000 693.000000 857.000000
1098.000000 1044.000000 973.000000
1266.000000 213.000000 904.000000
904.000000 978.000000 825.000000
1011.000000 1439.000000 1141.000000
1153.000000 422.000000 847.000000
712.000000 1485.000000 965.000000
894.000000 1495.000000 853.000000
801.000000 1180.000000 936.000000
785.000000 1198.000000 1145.000000
1058.000000 1146.000000 1169.000000
926.000000 353.000000 1098.000000
880.000000 1038.000000 1163.000000
1244.000000 1439.000000 950.000000
1068.000000 717.000000 1068.000000
1048.000000 1673.000000 983.000000
932.000000 1910.000000 1143.000000
1118.000000 972.000000 1080.000000
868.000000 1568.000000 1033.000000
781.000000 513.000000 938.000000
1050.000000 828.000000 886.000000
1132.000000 1481.000000 896.000000
1011.000000 1888.000000 965.000000
1041.000000 355.000000 882.000000
1197.000000 1340.000000 1064.000000
819.000000 316.000000 1037.000000
884.000000 278.000000 928.000000
954.000000 436.000000 1005.000000
928.000000 1619.000000 904.000000
843.000000 1364.000000 1076.000000
1043.000000 1301.000000 870.000000
1169.000000 405.000000 1118.000000
837.000000 594.000000 1100.000000
1161.000000 616.000000 1149.000000
954.000000 713.000000 1019.000000
748.000000 1131.000000 1048.000000
1199.000000 284.000000 979.000000
1151.000000 818.000000 1056.000000
829.000000 1299.000000 930.000000
1143.000000 1554.000000 1058.000000
752.000000 943.000000 1163.000000
1132.000000 757.000000 1163.000000
1037.000000 602.000000 888.000000
772.000000 1483.000000 861.000000
627.000000 1307.000000 823.000000
712.000000 1012.000000 1062.000000
1341.000000 1344.000000 1112.000000
827.000000 790.000000 1155.000000
967.000000 211.000000 1062.000000
770.000000 632.000000 952.000000
724.000000 1372.000000 928.000000
1316.000000 106.000000 898.000000
993.000000 1135.000000 843.000000
900.000000 1938.000000 975.000000
1272.000000 1326.000000 948.000000
835.000000 1229.000000 813.000000
1074.000000 385.000000 989.000000
768.000000 507.000000 1132.000000
1023.000000 1738.000000 1074.000000
1141.000000 1629.000000 932.000000
1132.000000 531.000000 872.000000
868.000000 767.000000 884.000000
999.000000 925.000000 859.000000
1227.000000 347.000000 890.000000
896.000000 798.000000 1066.000000
957.000000 929.000000 1114.000000
1157.000000 1218.000000 1147.000000
1120.000000 1053.000000 1159.000000
872.000000 1095.000000 924.000000
1280.000000 7.000000 868.000000
1019.000000 1779.000000 971.000000
1114.000000 486.000000 1009.000000
1244.000000 1204.000000 1056.000000
1132.000000 1249.000000 918.000000
989.000000 260.000000 888.000000
882.000000 1756.000000 1086.000000
811.000000 1000.000000 874.000000
710.000000 794.000000 1019.000000
855.000000 416.000000 1037.000000
866.000000 128.000000 938.000000
902.000000 128.000000 1068.000000
799.000000 1491.000000 1021.000000
1124.000000 796.000000 957.000000
926.000000 535.000000 1019.000000
1157.000000 678.000000 991.000000
1238.000000 1514.000000 1060.000000
756.000000 943.000000 981.000000
839.000000 1285.000000 1141.000000
904.000000 1787.000000 981.000000
981.000000 1247.000000 1173.000000
1094.000000 1380.000000 1161.000000
874.000000 1398.000000 831.000000
876.000000 478.000000 952.000000
1058.000000 903.000000 1124.000000
936.000000 363.000000 938.000000
1122.000000 1184.000000 993.000000
827.000000 1119.000000 1189.000000
898.000000 630.000000 1029.000000
967.000000 1708.000000 924.000000
965.000000 1224.000000 876.000000
1199.000000 608.000000 1058.000000
1062.000000 964.000000 926.000000
1068.000000 1103.000000 900.000000
849.000000 674.000000 910.000000
720.000000 1233.000000 954.000000
1106.000000 294.000000 1007.000000
1076.000000 1508.000000 1120.000000
954.000000 1675.000000 1098.000000
959.000000 1514.000000 1110.000000
748.000000 820.000000 1110.000000
975.000000 1095.000000 1181.000000
981.000000 547.000000 942.000000
1329.000000 1382.000000 1001.000000
890.000000 15.000000 1092.000000
1195.000000 472.000000 916.000000
1009.000000 207.000000 977.000000
900.000000 1821.000000 1153.000000
1078.000000 246.000000 920.000000
787.000000 1154.000000 845.000000
714.000000 697.000000 991.000000
1219.000000 351.000000 1060.000000
1157.000000 1311.000000 1143.000000
775.000000 842.000000 971.000000
985.000000 1514.000000 868.000000
1110.000000 962.000000 1173.000000
1033.000000 743.000000 853.000000
928.000000 1425.000000 1179.000000
754.000000 632.000000 1108.000000
989.000000 1839.000000 1161.000000
781.000000 1580.000000 1009.000000
1234.000000 1423.000000 1068.000000
1173.000000 1631.000000 1017.000000
952.000000 1055.000000 829.000000
1314.000000 1261.000000 1074.000000
868.000000 895.000000 835.000000
1011.000000 1346.000000 1173.000000
1082.000000 816.000000 1114.000000
1108.000000 612.000000 1029.000000
1197.000000 810.000000 1132.000000
1114.000000 1059.000000 1060.000000
1199.000000 480.000000 1035.000000
866.000000 1629.000000 967.000000
1120.000000 624.000000 912.000000
1199.000000 179.000000 857.000000
706.000000 571.000000 957.000000
886.000000 262.000000 1015.000000
946.000000 1607.000000 1043.000000
910.000000 1936.000000 1062.000000
1306.000000 1235.000000 991.000000
797.000000 1198.000000 1021.000000
690.000000 1368.000000 819.000000
959.000000 9.000000 1023.000000
841.000000 509.000000 1056.000000
637.000000 1376.000000 938.000000
999.000000 1930.000000 1092.000000
1151.000000 203.000000 1068.000000
918.000000 575.000000 1122.000000
902.000000 347.000000 1015.000000
1086.000000 1609.000000 1025.000000
1290.000000 1495.000000 995.000000
928.000000 1863.000000 946.000000
803.000000 1008.000000 1183.000000
772.000000 1287.000000 805.000000
957.000000 624.000000 906.000000
1227.000000 270.000000 855.000000
861.000000 1344.000000 995.000000
768.000000 436.000000 975.000000
1092.000000 1785.000000 1088.000000
819.000000 687.000000 1114.000000
977.000000 1965.000000 957.000000
1205.000000 1289.000000 916.000000
692.000000 1475.000000 884.000000
1179.000000 232.000000 918.000000
1169.000000 1552.000000 922.000000
762.000000 1315.000000 882.000000
1100.000000 1408.000000 872.000000
1221.000000 240.000000 1045.000000
918.000000 856.000000 1120.000000
736.000000 1540.000000 908.000000
954.000000 1382.000000 839.000000
1048.000000 531.000000 989.000000
1132.000000 897.000000 1050.000000
764.000000 498.000000 1027.000000
1143.000000 361.000000 1033.000000
1183.000000 695.000000 1155.000000
791.000000 873.000000 1155.000000
1074.000000 428.000000 868.000000
999.000000 412.000000 922.000000
841.000000 1322.000000 829.000000
851.000000 1441.000000 1056.000000
963.000000 292.000000 1062.000000
906.000000 1196.000000 829.000000
1274.000000 153.000000 849.000000
819.000000 314.000000 957.000000
1126.000000 974.000000 999.000000
1262.000000 1334.000000 1110.000000
876.000000 1044.000000 861.000000
1114.000000 351.000000 847.000000
813.000000 446.000000 1098.000000
736.000000 1138.000000 1128.000000
1019.000000 1649.000000 912.000000
1403.000000 1336.000000 1064.000000
904.000000 1243.000000 1157.000000
710.000000 1309.000000 973.000000
874.000000 1564.000000 888.000000
1078.000000 1218.000000 1141.000000
1126.000000 1206.000000 1076.000000
805.000000 1378.000000 900.000000
667.000000 1259.000000 872.000000
886.000000 721.000000 1056.000000
1155.000000 751.000000 1017.000000
1009.000000 763.000000 1048.000000
829.000000 824.000000 918.000000
874.000000 1382.000000 1145.000000
1096.000000 1113.000000 1007.000000
942.000000 1002.000000 1136.000000
1060.000000 1502.000000 878.000000
1134.000000 678.000000 1064.000000
1098.000000 1111.000000 1114.000000
772.000000 1121.000000 975.000000
1181.000000 1423.000000 910.000000
926.000000 761.000000 835.000000
847.000000 114.000000 1011.000000
1041.000000 1910.000000 1031.000000
989.000000 1671.000000 1031.000000
1294.000000 41.000000 934.000000
904.000000 163.000000 1001.000000
764.000000 1429.000000 957.000000
1290.000000 74.000000 835.000000
922.000000 426.000000 1074.000000
997.000000 375.000000 989.000000
1159.000000 543.000000 1130.000000
1045.000000 1837.000000 1013.000000
742.000000 642.000000 1033.000000
1197.000000 1180.000000 1003.000000
1084.000000 1030.000000 900.000000
1019.000000 678.000000 1027.000000
698.000000 1293.000000 807.000000
781.000000 365.000000 995.000000
1070.000000 290.000000 861.000000
1242.000000 112.000000 902.000000
787.000000 1253.000000 1096.000000
991.000000 1174.000000 1181.000000
1165.000000 545.000000 1041.000000
732.000000 1427.000000 835.000000
1165.000000 476.000000 1100.000000
1128.000000 755.000000 1086.000000
1349.000000 31.000000 872.000000
1072.000000 893.000000 912.000000
967.000000 474.000000 944.000000
748.000000 1206.000000 892.000000
607.000000 1330.000000 890.000000
1041.000000 672.000000 868.000000
1221.000000 646.000000 1116.000000
1175.000000 1378.000000 1122.000000
722.000000 1077.000000 1092.000000
1023.000000 442.000000 983.000000
936.000000 64.000000 1066.000000
817.000000 577.000000 942.000000
839.000000 1514.000000 1076.000000
979.000000 988.000000 831.000000
851.000000 1198.000000 1175.000000
1225.000000 434.000000 1084.000000
1219.000000 1506.000000 946.000000
1052.000000 1075.000000 1165.000000
1203.000000 1178.000000 1108.000000
1365.000000 1396.000000 1068.000000
1159.000000 937.000000 1128.000000
1294.000000 1398.000000 1100.000000
952.000000 1453.000000 853.000000
914.000000 1993.000000 1019.000000
730.000000 1004.000000 1130.000000
738.000000 1065.000000 1023.000000
995.000000 802.000000 845.000000
1209.000000 1576.000000 1043.000000
835.000000 1455.000000 845.000000
880.000000 1876.000000 1108.000000
1005.000000 1779.000000 1128.000000
884.000000 968.000000 1161.000000
811.000000 1063.000000 908.000000
1171.000000 505.000000 973.000000
1219.000000 1366.000000 924.000000
1094.000000 773.000000 896.000000
1066.000000 539.000000 896.000000
835.000000 244.000000 971.000000
1163.000000 230.000000 1005.000000
1092.000000 1449.000000 1153.000000
758.000000 1192.000000 1080.000000
1203.000000 1281.000000 1100.000000
892.000000 638.000000 1098.000000
900.000000 1103.000000 1179.000000
999.000000 1831.000000 926.000000
1015.000000 1253.000000 914.000000
936.000000 907.000000 837.000000
888.000000 767.000000 1132.000000
872.000000 828.000000 851.000000
684.000000 1429.000000 936.000000
950.000000 270.000000 946.000000
999.000000 1754.000000 884.000000
989.000000 325.000000 916.000000
1163.000000 424.000000 1052.000000
1080.000000 1006.000000 1126.000000
1195.000000 347.000000 952.000000
963.000000 642.000000 1011.000000
821.000000 1289.000000 999.000000
1110.000000 1303.000000 882.000000
1052.000000 262.000000 981.000000
797.000000 1320.000000 1100.000000
1068.000000 1226.000000 987.000000
1167.000000 867.000000 1100.000000
1209.000000 405.000000 920.000000
890.000000 412.000000 946.000000
785.000000 982.000000 934.000000
1108.000000 1548.000000 890.000000
1017.000000 1360.000000 849.000000
815.000000 1532.000000 878.000000
979.000000 1578.000000 888.000000
878.000000 567.000000 1054.000000
1179.000000 333.000000 845.000000
720.000000 943.000000 1104.000000
1217.000000 581.000000 1132.000000
766.000000 565.000000 1098.000000
835.000000 1111.000000 868.000000
916.000000 1671.000000 946.000000
1177.000000 1502.000000 1084.000000
1141.000000 731.000000 954.000000
898.000000 478.000000 1039.000000
904.000000 1536.000000 1080.000000
952.000000 248.000000 1009.000000
876.000000 1876.000000 985.000000
872.000000 343.000000 926.000000
714.000000 953.000000 1031.000000
736.000000 1546.000000 975.000000
977.000000 1289.000000 870.000000
815.000000 456.000000 932.000000
1082.000000 1659.000000 928.000000
1230.000000 274.000000 922.000000
839.000000 1135.000000 965.000000
1167.000000 1200.000000 948.000000
815.000000 941.000000 1181.000000
890.000000 707.000000 870.000000
1108.000000 551.000000 1005.000000
722.000000 858.000000 1005.000000
922.000000 100.000000 1011.000000
1163.000000 345.000000 1094.000000
868.000000 1267.000000 857.000000
1017.000000 953.000000 1128.000000
1078.000000 1142.000000 952.000000
872.000000 836.000000 1161.000000
1110.000000 840.000000 912.000000
847.000000 955.000000 845.000000
1139.000000 844.000000 997.000000
738.000000 883.000000 1118.000000
1023.000000 1726.000000 1011.000000
722.000000 735.000000 1043.000000
888.000000 203.000000 1050.000000
772.000000 1299.000000 959.000000
738.000000 1004.000000 1001.000000
710.000000 636.000000 973.000000
1120.000000 1170.000000 1128.000000
946.000000 759.000000 1062.000000
987.000000 509.000000 993.000000
1209.000000 747.000000 1130.000000
1043.000000 970.000000 866.000000
801.000000 687.000000 950.000000
1054.000000 325.000000 985.000000
1274.000000 1263.000000 944.000000
863.000000 537.000000 1108.000000
1084.000000 1556.000000 1080.000000
1296.000000 1433.000000 985.000000
987.000000 864.000000 851.000000
874.000000 72.000000 1060.000000
930.000000 1758.000000 932.000000
1116.000000 472.000000 853.000000
940.000000 1115.000000 815.000000
916.000000 1718.000000 1122.000000
1118.000000 424.000000 1009.000000
874.000000 1793.000000 1035.000000
910.000000 533.000000 959.000000
829.000000 733.000000 918.000000
1048.000000 1779.000000 1035.000000
1130.000000 818.000000 1153.000000
1312.000000 1291.000000 1128.000000
930.000000 1542.000000 874.000000
1003.000000 1176.000000 888.000000
1128.000000 234.000000 954.000000
965.000000 581.000000 1001.000000
795.000000 743.000000 1130.000000
888.000000 1324.000000 1130.000000
1033.000000 1089.000000 851.000000
617.000000 1366.000000 837.000000
851.000000 1358.000000 936.000000
777.000000 1206.000000 813.000000
805.000000 383.000000 1050.000000
902.000000 648.000000 894.000000
1106.000000 871.000000 1102.000000
1027.000000 1623.000000 1033.000000
872.000000 1817.000000 1094.000000
1078.000000 1352.000000 861.000000
839.000000 1168.000000 815.000000
991.000000 1718.000000 1122.000000
957.000000 877.000000 1078.000000
1321.000000 1295.000000 967.000000
1167.000000 539.000000 922.000000
1143.000000 268.000000 1048.000000
1076.000000 660.000000 1048.000000
1187.000000 769.000000 1078.000000
1019.000000 1524.000000 1106.000000
833.000000 1059.000000 1195.000000
1017.000000 1291.000000 1197.000000
1248.000000 58.000000 876.000000
991.000000 1896.000000 1141.000000
1074.000000 1261.000000 906.000000
768.000000 1119.000000 1175.000000
957.000000 1467.000000 1147.000000
1108.000000 1643.000000 981.000000
1286.000000 157.000000 910.000000
849.000000 725.000000 1149.000000
744.000000 533.000000 983.000000
1270.000000 1386.000000 959.000000
938.000000 1049.000000 1173.000000
1118.000000 1263.000000 1147.000000
1191.000000 1615.000000 961.000000
963.000000 1378.000000 1189.000000
845.000000 1398.000000 1015.000000
1098.000000 1611.000000 894.000000
1274.000000 1226.000000 1102.000000
863.000000 187.000000 965.000000
1191.000000 333.000000 1011.000000
1359.000000 1299.000000 1078.000000
829.000000 256.000000 1029.000000
965.000000 1562.000000 1076.000000
1058.000000 776.000000 1078.000000
732.000000 753.000000 983.000000
1258.000000 1200.000000 999.000000
920.000000 1261.000000 884.000000
1013.000000 1954.000000 1003.000000
1223.000000 292.000000 1072.000000
904.000000 1704.000000 1066.000000
839.000000 523.000000 940.000000
1215.000000 1224.000000 1145.000000
954.000000 1912.000000 965.000000
849.000000 1425.000000 1112.000000
1100.000000 1322.000000 1149.000000
1262.000000 1542.000000 1015.000000
1112.000000 1156.000000 1043.000000
902.000000 1744.000000 1021.000000
902.000000 3.000000 1035.000000
722.000000 834.000000 1060.000000
1165.000000 660.000000 1110.000000
1003.000000 889.000000 1112.000000
914.000000 1631.000000 1001.000000
1021.000000 246.000000 934.000000
1132.000000 674.000000 938.000000
811.000000 1611.000000 971.000000
716.000000 1249.000000 1009.000000
772.000000 1216.000000 971.000000
1250.000000 205.000000 849.000000
785.000000 897.000000 959.000000
954.000000 1969.000000 1078.000000
1197.000000 391.000000 866.000000
914.000000 300.000000 983.000000
1098.000000 907.000000 1165.000000
748.000000 776.000000 1074.000000
847.000000 626.000000 942.000000
819.000000 1322.000000 1045.000000
1039.000000 1390.000000 1151.000000
1213.000000 555.000000 1072.000000
946.000000 420.000000 940.000000
1104.000000 579.000000 882.000000
762.000000 452.000000 1122.000000
957.000000 337.000000 1009.000000
789.000000 1425.000000 833.000000
1037.000000 1243.000000 1171.000000
948.000000 820.000000 1066.000000
837.000000 1453.000000 1003.000000
1268.000000 1467.000000 1076.000000
1013.000000 1708.000000 957.000000
855.000000 359.000000 1043.000000
1159.000000 638.000000 1033.000000
777.000000 486.000000 1080.000000
738.000000 1330.000000 819.000000
908.000000 919.000000 1139.000000
954.000000 1176.000000 849.000000
1232.000000 169.000000 902.000000
762.000000 577.000000 954.000000
1072.000000 652.000000 910.000000
1155.000000 630.000000 963.000000
815.000000 1550.000000 1041.000000
1371.000000 1350.000000 1021.000000
847.000000 642.000000 1130.000000
1185.000000 234.000000 863.000000
979.000000 741.000000 841.000000
950.000000 1799.000000 1163.000000
874.000000 1906.000000 1033.000000
1130.000000 1499.000000 1114.000000
1195.000000 126.000000 874.000000
1048.000000 856.000000 1096.000000
938.000000 1859.000000 1165.000000
934.000000 381.000000 1045.000000
1064.000000 478.000000 987.000000
874.000000 1611.000000 916.000000
1169.000000 470.000000 868.000000
1084.000000 951.000000 1126.000000
1132.000000 1002.000000 1143.000000
1031.000000 1799.000000 1084.000000
754.000000 676.000000 1074.000000
963.000000 1297.000000 1189.000000
940.000000 1.000000 1074.000000
1029.000000 883.000000 880.000000
1181.000000 1477.000000 920.000000
908.000000 1770.000000 1136.000000
1187.000000 1396.000000 1072.000000
843.000000 867.000000 876.000000
809.000000 533.000000 1106.000000
677.000000 1251.000000 926.000000
906.000000 685.000000 1021.000000
1122.000000 1010.000000 1039.000000
1130.000000 248.000000 902.000000
1094.000000 1091.000000 946.000000
989.000000 658.000000 878.000000
1161.000000 725.000000 1116.000000
681.000000 1344.000000 944.000000
760.000000 1475.000000 987.000000
1021.000000 304.000000 878.000000
807.000000 951.000000 896.000000
1062.000000 211.000000 965.000000
1339.000000 1433.000000 1017.000000
1088.000000 992.000000 965.000000
900.000000 1441.000000 849.000000
918.000000 1726.000000 973.000000
857.000000 151.000000 1048.000000
983.000000 1766.000000 934.000000
1108.000000 1214.000000 950.000000
926.000000 312.000000 924.000000
821.000000 1237.000000 1155.000000
888.000000 92.000000 971.000000
1280.000000 1239.000000 1039.000000
823.000000 1138.000000 912.000000
942.000000 583.000000 936.000000
1215.000000 383.000000 1102.000000
1197.000000 1170.000000 1056.000000
1238.000000 1372.000000 1082.000000
1003.000000 191.000000 1027.000000
730.000000 1317.000000 924.000000
924.000000 1811.000000 936.000000
1019.000000 523.000000 914.000000
1209.000000 1469.000000 1058.000000
906.000000 1356.000000 831.000000
1092.000000 1012.000000 1177.000000
880.000000 1433.000000 1157.000000
904.000000 1077.000000 831.000000
880.000000 818.000000 1112.000000
967.000000 1657.000000 910.000000
813.000000 1328.000000 886.000000
1074.000000 488.000000 880.000000
863.000000 1825.000000 995.000000
1070.000000 1451.000000 872.000000
1209.000000 236.000000 961.000000
787.000000 822.000000 1145.000000
1043.000000 1148.000000 908.000000
1177.000000 583.000000 1098.000000
1321.000000 5.000000 908.000000
1171.000000 116.000000 825.000000
681.000000 1417.000000 839.000000
1201.000000 393.000000 1035.000000
1197.000000 660.000000 1062.000000
754.000000 1366.000000 886.000000
942.000000 486.000000 1011.000000
995.000000 591.000000 918.000000
1134.000000 1406.000000 1141.000000
1183.000000 458.000000 991.000000
1104.000000 1049.000000 1110.000000
1062.000000 1340.000000 1179.000000
748.000000 527.000000 1068.000000
1100.000000 943.000000 954.000000
930.000000 1981.000000 971.000000
829.000000 1372.000000 825.000000
1187.000000 1241.000000 924.000000
1068.000000 585.000000 1009.000000
1155.000000 780.000000 1122.000000
870.000000 310.000000 1031.000000
1136.000000 1599.000000 1033.000000
942.000000 1214.000000 1179.000000
651.000000 1449.000000 902.000000
870.000000 1146.000000 1181.000000
971.000000 1334.000000 845.000000
894.000000 521.000000 1070.000000
1323.000000 1273.000000 1025.000000
770.000000 1582.000000 959.000000
797.000000 800.000000 950.000000
1092.000000 1107.000000 1165.000000
726.000000 909.000000 1007.000000
1102.000000 345.000000 1005.000000
1173.000000 310.000000 1058.000000
615.000000 1382.000000 892.000000
1114.000000 242.000000 1013.000000
681.000000 1267.000000 975.000000
811.000000 1166.000000 1175.000000
766.000000 1530.000000 1013.000000
1157.000000 1295.000000 900.000000
1159.000000 1261.000000 1116.000000
807.000000 1101.000000 944.000000
756.000000 709.000000 965.000000
742.000000 804.000000 981.000000
890.000000 213.000000 999.000000
853.000000 1000.000000 1185.000000
1037.000000 1192.000000 1167.000000
625.000000 1287.000000 870.000000
995.000000 1696.000000 1076.000000
916.000000 585.000000 1015.000000
768.000000 1158.000000 1009.000000
868.000000 731.000000 1102.000000
1039.000000 929.000000 898.000000
716.000000 594.000000 1001.000000
1110.000000 1109.000000 1064.000000
760.000000 486.000000 975.000000
821.000000 1277.000000 819.000000
1013.000000 1129.000000 1185.000000
926.000000 325.000000 1054.000000
1045.000000 428.000000 910.000000
787.000000 1073.000000 1181.000000
1211.000000 468.000000 1118.000000
1227.000000 143.000000 835.000000
936.000000 250.000000 1058.000000
841.000000 1336.000000 1118.000000
977.000000 33.000000 1064.000000
880.000000 668.000000 1060.000000
775.000000 1233.000000 1052.000000
1151.000000 587.000000 924.000000
1173.000000 523.000000 1086.000000
1130.000000 925.000000 1009.000000
1027.000000 1829.000000 967.000000
1035.000000 1481.000000 1130.000000
1308.000000 1344.000000 977.000000
706.000000 1229.000000 878.000000
1159.000000 589.000000 1019.000000
1136.000000 1356.000000 1147.000000
756.000000 1018.000000 1171.000000
1155.000000 1176.000000 1029.000000
752.000000 606.000000 1066.000000
1021.000000 1827.000000 1124.000000
1284.000000 1502.000000 1045.000000
1159.000000 721.000000 1056.000000
700.000000 1506.000000 922.000000
803.000000 628.000000 1112.000000
1007.000000 1057.000000 1175.000000
746.000000 1186.000000 847.000000
1019.000000 1475.000000 868.000000
1009.000000 561.000000 991.000000
932.000000 50.000000 1019.000000
839.000000 458.000000 1058.000000
1171.000000 1214.000000 1098.000000
863.000000 1002.000000 839.000000
1108.000000 401.000000 845.000000
884.000000 456.000000 1082.000000
912.000000 1026.000000 833.000000
785.000000 1174.000000 890.000000
989.000000 1087.000000 827.000000
922.000000 460.000000 957.000000
954.000000 1140.000000 1181.000000
1074.000000 731.000000 878.000000
1056.000000 784.000000 866.000000
829.000000 1588.000000 1011.000000
912.000000 1502.000000 1114.000000
1005.000000 701.000000 853.000000
912.000000 1291.000000 1157.000000
1205.000000 288.000000 1027.000000
914.000000 964.000000 1122.000000
1027.000000 1538.000000 874.000000
1001.000000 252.000000 993.000000
1147.000000 796.000000 1001.000000
815.000000 1174.000000 983.000000
946.000000 1686.000000 1050.000000
811.000000 288.000000 997.000000
1118.000000 917.000000 1112.000000
1312.000000 31.000000 841.000000
1278.000000 84.000000 918.000000
1052.000000 1241.000000 944.000000
801.000000 1417.000000 928.000000
805.000000 1453.000000 965.000000
1136.000000 1433.000000 892.000000
973.000000 1419.000000 1163.000000
1136.000000 1584.000000 906.000000
791.000000 448.000000 1054.000000
833.000000 913.000000 866.000000
1187.000000 1330.000000 1110.000000
866.000000 612.000000 1066.000000
736.000000 468.000000 1052.000000
825.000000 842.000000 1169.000000
1153.000000 466.000000 1031.000000
912.000000 1380.000000 1175.000000
770.000000 407.000000 1015.000000
841.000000 145.000000 975.000000
1043.000000 264.000000 892.000000
1122.000000 802.000000 1092.000000
1181.000000 771.000000 1161.000000
845.000000 1499.000000 861.000000
1213.000000 1605.000000 1005.000000
1157.000000 1647.000000 975.000000
1074.000000 1178.000000 983.000000
1110.000000 1067.000000 1013.000000
1015.000000 367.000000 920.000000
1056.000000 1394.000000 857.000000
997.000000 1948.000000 1048.000000
928.000000 286.000000 1027.000000
957.000000 1938.000000 1114.000000
1217.000000 693.000000 1122.000000
730.000000 689.000000 1035.000000
1157.000000 375.000000 843.000000
944.000000 955.000000 835.000000
734.000000 1499.000000 884.000000
906.000000 1241.000000 843.000000
914.000000 1574.000000 1054.000000
787.000000 1022.000000 908.000000
807.000000 860.000000 940.000000
1177.000000 242.000000 1072.000000
1076.000000 432.000000 989.000000
785.000000 395.000000 959.000000
793.000000 1324.000000 825.000000
1197.000000 436.000000 886.000000
1066.000000 1063.000000 872.000000
1191.000000 438.000000 948.000000
993.000000 1032.000000 839.000000
1254.000000 1483.000000 967.000000
1116.000000 852.000000 957.000000
829.000000 490.000000 1098.000000
1183.000000 503.000000 1134.000000
904.000000 1916.000000 1104.000000
999.000000 721.000000 1029.000000
1321.000000 58.000000 898.000000
985.000000 1827.000000 878.000000
1031.000000 1898.000000 1076.000000
1116.000000 1748.000000 1072.000000
896.000000 931.000000 825.000000
880.000000 256.000000 969.000000
777.000000 782.000000 1110.000000
1240.000000 302.000000 886.000000
791.000000 1289.000000 1066.000000
973.000000 1018.000000 1167.000000
940.000000 1497.000000 861.000000
661.000000 1275.000000 829.000000
892.000000 1837.000000 959.000000
975.000000 1866.000000 946.000000
991.000000 1601.000000 1052.000000
841.000000 100.000000 965.000000
906.000000 871.000000 825.000000
876.000000 1605.000000 1005.000000
912.000000 1152.000000 817.000000
1177.000000 850.000000 1143.000000
1302.000000 114.000000 855.000000
1260.000000 110.000000 835.000000
667.000000 1328.000000 815.000000
779.000000 1554.000000 896.000000
904.000000 802.000000 831.000000
1120.000000 1218.000000 1120.000000
625.000000 1332.000000 934.000000
892.000000 391.000000 1027.000000
831.000000 409.000000 1078.000000
837.000000 778.000000 916.000000
722.000000 1411.000000 954.000000
1221.000000 215.000000 912.000000
1070.000000 335.000000 853.000000
1213.000000 490.000000 1078.000000
1254.000000 254.000000 888.000000
1219.000000 318.000000 926.000000
983.000000 982.000000 1141.000000
1181.000000 822.000000 1090.000000
760.000000 1398.000000 918.000000
1013.000000 1605.000000 902.000000
1189.000000 1542.000000 1066.000000
1054.000000 1868.000000 1045.000000
954.000000 389.000000 1005.000000
880.000000 875.000000 1136.000000
1268.000000 11.000000 912.000000
1191.000000 650.000000 1151.000000
732.000000 1263.000000 805.000000
904.000000 761.000000 1041.000000
942.000000 15.000000 1118.000000
762.000000 452.000000 1017.000000
853.000000 1069.000000 892.000000
954.000000 1752.000000 894.000000
1104.000000 747.000000 932.000000
1187.000000 1441.000000 1086.000000
787.000000 937.000000 938.000000
912.000000 1465.000000 1151.000000
878.000000 600.000000 1118.000000
922.000000 533.000000 1106.000000
1110.000000 713.000000 1084.000000
1136.000000 316.000000 1033.000000
760.000000 543.000000 1025.000000
