ply
format ascii 1.0
element vertex 805
property float x
property float y
property float z
end_header
770.000000 1263.000000 1125.000000
1179.000000 7.000000 724.000000
1157.000000 1987.000000 977.000000
1224.000000 770.000000 758.000000
690.000000 411.000000 915.000000
1334.000000 1389.000000 854.000000
1265.000000 1135.000000 1344.000000
920.000000 1167.000000 644.000000
851.000000 1634.000000 803.000000
827.000000 841.000000 968.000000
729.000000 21.000000 1062.000000
1194.000000 382.000000 897.000000
1104.000000 1059.000000 926.000000
1139.000000 1640.000000 997.000000
727.000000 87.000000 728.000000
1210.000000 25.000000 1050.000000
878.000000 1167.000000 1411.000000
1073.000000 1442.000000 681.000000
1024.000000 1353.000000 974.000000
935.000000 872.000000 691.000000
1183.000000 1037.000000 644.000000
1279.000000 1222.000000 1076.000000
845.000000 1094.000000 887.000000
757.000000 1414.000000 911.000000
1247.000000 1618.000000 762.000000
1031.000000 1828.000000 1138.000000
827.000000 617.000000 840.000000
1096.000000 596.000000 858.000000
1186.000000 1232.000000 769.000000
1151.000000 235.000000 726.000000
931.000000 1555.000000 997.000000
761.000000 201.000000 915.000000
870.000000 1367.000000 726.000000
1055.000000 1711.000000 809.000000
1063.000000 861.000000 862.000000
1257.000000 963.000000 824.000000
1198.000000 1449.000000 987.000000
755.000000 651.000000 1017.000000
786.000000 931.000000 801.000000
1173.000000 113.000000 883.000000
1033.000000 1844.000000 948.000000
1198.000000 1815.000000 1046.000000
1310.000000 1591.000000 936.000000
1208.000000 494.000000 750.000000
655.000000 50.000000 895.000000
1006.000000 1012.000000 595.000000
886.000000 1273.000000 883.000000
888.000000 1175.000000 1231.000000
1177.000000 739.000000 926.000000
1110.000000 880.000000 675.000000
1094.000000 1188.000000 626.000000
923.000000 763.000000 828.000000
1171.000000 1179.000000 1205.000000
945.000000 963.000000 938.000000
1179.000000 1287.000000 932.000000
920.000000 1716.000000 936.000000
1234.000000 1449.000000 732.000000
990.000000 1581.000000 726.000000
855.000000 1016.000000 673.000000
780.000000 1575.000000 938.000000
980.000000 1161.000000 956.000000
808.000000 507.000000 968.000000
1253.000000 623.000000 836.000000
792.000000 329.000000 824.000000
1037.000000 1977.000000 1081.000000
1200.000000 1718.000000 875.000000
994.000000 1306.000000 652.000000
768.000000 761.000000 848.000000
1251.000000 244.000000 852.000000
800.000000 1400.000000 1060.000000
1330.000000 1255.000000 934.000000
827.000000 1190.000000 767.000000
1079.000000 729.000000 783.000000
1118.000000 374.000000 769.000000
1249.000000 1098.000000 762.000000
837.000000 1485.000000 809.000000
878.000000 702.000000 954.000000
702.000000 221.000000 783.000000
702.000000 549.000000 871.000000
1171.000000 1860.000000 909.000000
1061.000000 1493.000000 995.000000
1169.000000 1336.000000 671.000000
1035.000000 1730.000000 1034.000000
1169.000000 1938.000000 1109.000000
1192.000000 878.000000 913.000000
1128.000000 1567.000000 711.000000
1200.000000 519.000000 909.000000
1328.000000 1522.000000 818.000000
1253.000000 9.000000 921.000000
794.000000 335.000000 960.000000
1106.000000 113.000000 765.000000
802.000000 464.000000 840.000000
745.000000 1302.000000 985.000000
884.000000 1383.000000 958.000000
1120.000000 1181.000000 877.000000
1226.000000 929.000000 703.000000
835.000000 821.000000 754.000000
1243.000000 350.000000 781.000000
1298.000000 1371.000000 977.000000
949.000000 1463.000000 703.000000
1106.000000 213.000000 842.000000
798.000000 1192.000000 1317.000000
763.000000 95.000000 848.000000
1228.000000 1345.000000 803.000000
802.000000 1069.000000 773.000000
1224.000000 148.000000 775.000000
1169.000000 651.000000 750.000000
1108.000000 474.000000 840.000000
768.000000 21.000000 946.000000
688.000000 293.000000 881.000000
825.000000 951.000000 915.000000
727.000000 662.000000 901.000000
935.000000 847.000000 913.000000
1137.000000 1132.000000 1309.000000
937.000000 1714.000000 818.000000
1204.000000 1061.000000 864.000000
1196.000000 1157.000000 675.000000
1024.000000 1626.000000 979.000000
1063.000000 1245.000000 956.000000
1318.000000 1475.000000 930.000000
1088.000000 945.000000 938.000000
853.000000 1375.000000 840.000000
833.000000 1493.000000 999.000000
1047.000000 1956.000000 968.000000
1171.000000 7.000000 840.000000
662.000000 162.000000 873.000000
843.000000 1296.000000 1044.000000
1147.000000 30.000000 956.000000
1029.000000 861.000000 754.000000
819.000000 1677.000000 903.000000
1253.000000 796.000000 864.000000
1102.000000 1771.000000 893.000000
759.000000 751.000000 962.000000
886.000000 1259.000000 699.000000
1177.000000 627.000000 930.000000
1145.000000 1661.000000 767.000000
1210.000000 1557.000000 968.000000
1294.000000 1661.000000 852.000000
953.000000 1267.000000 970.000000
1116.000000 1767.000000 1101.000000
761.000000 865.000000 885.000000
1090.000000 1082.000000 603.000000
1104.000000 969.000000 614.000000
963.000000 1451.000000 983.000000
996.000000 1057.000000 934.000000
857.000000 598.000000 942.000000
1010.000000 1879.000000 1046.000000
706.000000 15.000000 807.000000
1161.000000 1742.000000 977.000000
890.000000 1550.000000 744.000000
717.000000 560.000000 977.000000
839.000000 918.000000 709.000000
1130.000000 1369.000000 977.000000
1220.000000 1903.000000 993.000000
1245.000000 454.000000 840.000000
1018.000000 927.000000 658.000000
867.000000 1638.000000 987.000000
1253.000000 867.000000 783.000000
841.000000 710.000000 793.000000
1216.000000 1161.000000 840.000000
1243.000000 1220.000000 979.000000
1132.000000 786.000000 714.000000
1137.000000 311.000000 848.000000
847.000000 1116.000000 693.000000
843.000000 1289.000000 787.000000
1098.000000 696.000000 879.000000
1002.000000 1750.000000 887.000000
925.000000 1067.000000 620.000000
796.000000 1200.000000 1199.000000
925.000000 955.000000 634.000000
725.000000 403.000000 822.000000
902.000000 1175.000000 895.000000
792.000000 229.000000 824.000000
723.000000 109.000000 938.000000
1232.000000 1155.000000 1131.000000
1139.000000 560.000000 777.000000
1010.000000 1137.000000 618.000000
759.000000 423.000000 985.000000
894.000000 1210.000000 1323.000000
664.000000 23.000000 989.000000
1173.000000 976.000000 901.000000
1259.000000 1287.000000 875.000000
1090.000000 1283.000000 652.000000
1208.000000 1196.000000 1293.000000
1228.000000 1644.000000 930.000000
1253.000000 1302.000000 1028.000000
727.000000 1395.000000 999.000000
1120.000000 1858.000000 1125.000000
804.000000 1565.000000 848.000000
806.000000 1016.000000 850.000000
978.000000 839.000000 830.000000
1218.000000 1540.000000 718.000000
965.000000 1167.000000 1282.000000
1116.000000 1934.000000 909.000000
1057.000000 1640.000000 750.000000
1157.000000 1477.000000 691.000000
890.000000 680.000000 866.000000
1247.000000 1008.000000 744.000000
678.000000 103.000000 805.000000
1257.000000 713.000000 822.000000
1171.000000 1245.000000 673.000000
1110.000000 786.000000 885.000000
933.000000 1642.000000 762.000000
1204.000000 841.000000 705.000000
763.000000 154.000000 779.000000
821.000000 278.000000 895.000000
814.000000 388.000000 889.000000
743.000000 1332.000000 1074.000000
945.000000 1377.000000 677.000000
1220.000000 58.000000 785.000000
1063.000000 1139.000000 932.000000
829.000000 537.000000 883.000000
910.000000 1041.000000 915.000000
806.000000 1345.000000 936.000000
757.000000 1491.000000 954.000000
1120.000000 1995.000000 1058.000000
1296.000000 1442.000000 795.000000
923.000000 812.000000 754.000000
1241.000000 1137.000000 1237.000000
1179.000000 99.000000 718.000000
990.000000 1220.000000 636.000000
1126.000000 1552.000000 991.000000
1249.000000 539.000000 813.000000
1012.000000 916.000000 907.000000
1214.000000 268.000000 777.000000
1214.000000 1363.000000 956.000000
1053.000000 1524.000000 705.000000
1192.000000 409.000000 742.000000
1181.000000 1255.000000 852.000000
1057.000000 1357.000000 679.000000
872.000000 1453.000000 738.000000
1183.000000 197.000000 875.000000
890.000000 786.000000 952.000000
814.000000 990.000000 746.000000
831.000000 1444.000000 883.000000
1004.000000 1705.000000 958.000000
841.000000 1208.000000 848.000000
1037.000000 1746.000000 1117.000000
806.000000 1135.000000 826.000000
698.000000 492.000000 932.000000
1230.000000 680.000000 893.000000
884.000000 902.000000 948.000000
1218.000000 1685.000000 801.000000
1000.000000 1799.000000 1064.000000
1212.000000 1302.000000 734.000000
1126.000000 394.000000 852.000000
1100.000000 649.000000 795.000000
739.000000 276.000000 944.000000
1053.000000 1905.000000 1117.000000
1241.000000 325.000000 860.000000
1202.000000 1196.000000 1066.000000
798.000000 584.000000 997.000000
1336.000000 1334.000000 915.000000
1135.000000 1716.000000 826.000000
1053.000000 802.000000 807.000000
776.000000 680.000000 838.000000
780.000000 833.000000 813.000000
814.000000 708.000000 1003.000000
947.000000 1650.000000 974.000000
1126.000000 36.000000 779.000000
1135.000000 462.000000 765.000000
843.000000 1251.000000 1158.000000
719.000000 297.000000 807.000000
1336.000000 1591.000000 860.000000
1251.000000 890.000000 860.000000
1167.000000 933.000000 648.000000
1234.000000 62.000000 864.000000
1318.000000 1257.000000 1015.000000
1200.000000 1811.000000 966.000000
684.000000 223.000000 919.000000
698.000000 472.000000 852.000000
1220.000000 54.000000 977.000000
1177.000000 329.000000 742.000000
1194.000000 1147.000000 1376.000000
1183.000000 1155.000000 754.000000
749.000000 607.000000 846.000000
1110.000000 1707.000000 1025.000000
1159.000000 452.000000 895.000000
1277.000000 1510.000000 760.000000
865.000000 1699.000000 844.000000
1141.000000 1106.000000 875.000000
1008.000000 1550.000000 985.000000
1094.000000 1854.000000 901.000000
1069.000000 1416.000000 991.000000
814.000000 1334.000000 1105.000000
768.000000 533.000000 832.000000
772.000000 1263.000000 1046.000000
896.000000 1190.000000 732.000000
727.000000 23.000000 881.000000
1157.000000 1108.000000 630.000000
1220.000000 1086.000000 691.000000
1118.000000 87.000000 836.000000
947.000000 1345.000000 979.000000
778.000000 1499.000000 879.000000
1128.000000 533.000000 887.000000
1257.000000 1497.000000 972.000000
1192.000000 1958.000000 1038.000000
1214.000000 1377.000000 718.000000
892.000000 1232.000000 797.000000
1208.000000 592.000000 777.000000
1190.000000 272.000000 887.000000
729.000000 62.000000 997.000000
1022.000000 986.000000 934.000000
721.000000 350.000000 948.000000
1139.000000 1406.000000 673.000000
827.000000 460.000000 911.000000
837.000000 1569.000000 989.000000
1110.000000 189.000000 769.000000
933.000000 1112.000000 924.000000
660.000000 233.000000 844.000000
1128.000000 264.000000 791.000000
1230.000000 586.000000 897.000000
996.000000 1679.000000 777.000000
1167.000000 723.000000 732.000000
853.000000 1422.000000 1013.000000
1022.000000 1775.000000 974.000000
1251.000000 1039.000000 811.000000
1120.000000 890.000000 899.000000
1190.000000 1887.000000 1060.000000
774.000000 1451.000000 1013.000000
1114.000000 1298.000000 964.000000
1338.000000 1463.000000 860.000000
763.000000 58.000000 785.000000
1306.000000 1587.000000 793.000000
1130.000000 1232.000000 928.000000
912.000000 741.000000 899.000000
1126.000000 1461.000000 987.000000
784.000000 164.000000 856.000000
1006.000000 1416.000000 691.000000
1183.000000 1928.000000 936.000000
1202.000000 806.000000 915.000000
821.000000 1161.000000 1256.000000
747.000000 798.000000 907.000000
896.000000 1306.000000 946.000000
1224.000000 1226.000000 1127.000000
1183.000000 1608.000000 732.000000
1347.000000 1530.000000 895.000000
1334.000000 1406.000000 924.000000
1151.000000 164.000000 716.000000
904.000000 1489.000000 991.000000
686.000000 362.000000 864.000000
837.000000 1353.000000 1003.000000
925.000000 1310.000000 669.000000
872.000000 761.000000 756.000000
1261.000000 1428.000000 960.000000
743.000000 492.000000 989.000000
843.000000 1022.000000 909.000000
1137.000000 1124.000000 695.000000
1141.000000 48.000000 889.000000
719.000000 629.000000 962.000000
829.000000 774.000000 985.000000
833.000000 643.000000 989.000000
1285.000000 1342.000000 842.000000
1073.000000 810.000000 740.000000
1151.000000 1762.000000 1042.000000
1173.000000 1679.000000 952.000000
810.000000 772.000000 795.000000
929.000000 1206.000000 950.000000
845.000000 1404.000000 779.000000
847.000000 1552.000000 797.000000
867.000000 1349.000000 901.000000
778.000000 929.000000 871.000000
1224.000000 664.000000 789.000000
1102.000000 1950.000000 1105.000000
872.000000 855.000000 709.000000
1135.000000 152.000000 842.000000
925.000000 1234.000000 650.000000
792.000000 397.000000 826.000000
808.000000 1634.000000 954.000000
808.000000 884.000000 758.000000
949.000000 1528.000000 720.000000
798.000000 892.000000 934.000000
1214.000000 994.000000 685.000000
743.000000 727.000000 901.000000
1208.000000 207.000000 748.000000
792.000000 1618.000000 887.000000
1220.000000 121.000000 836.000000
829.000000 1196.000000 1376.000000
741.000000 1357.000000 946.000000
1255.000000 931.000000 765.000000
1241.000000 441.000000 775.000000
1094.000000 1993.000000 997.000000
1241.000000 388.000000 836.000000
1328.000000 1312.000000 979.000000
1218.000000 1279.000000 803.000000
990.000000 1075.000000 608.000000
1014.000000 1289.000000 954.000000
827.000000 1255.000000 1093.000000
859.000000 1695.000000 952.000000
1084.000000 1603.000000 993.000000
1020.000000 1942.000000 1028.000000
1190.000000 5.000000 903.000000
1267.000000 1239.000000 919.000000
1061.000000 1903.000000 932.000000
1247.000000 1402.000000 777.000000
672.000000 168.000000 807.000000
1226.000000 1000.000000 871.000000
1222.000000 193.000000 822.000000
1157.000000 1783.000000 926.000000
1143.000000 682.000000 924.000000
1128.000000 1029.000000 608.000000
1102.000000 539.000000 826.000000
1002.000000 1222.000000 958.000000
1126.000000 1163.000000 815.000000
996.000000 888.000000 705.000000
1216.000000 1249.000000 1030.000000
939.000000 1740.000000 877.000000
1057.000000 1675.000000 1007.000000
825.000000 1057.000000 714.000000
739.000000 690.000000 958.000000
890.000000 914.000000 669.000000
1173.000000 1508.000000 991.000000
821.000000 1128.000000 752.000000
1008.000000 1828.000000 1007.000000
1022.000000 1895.000000 985.000000
1181.000000 1198.000000 883.000000
1079.000000 747.000000 844.000000
884.000000 976.000000 926.000000
808.000000 1296.000000 991.000000
704.000000 19.000000 940.000000
1226.000000 1281.000000 974.000000
949.000000 800.000000 873.000000
874.000000 1314.000000 836.000000
1232.000000 1181.000000 1189.000000
1051.000000 1236.000000 636.000000
806.000000 397.000000 952.000000
1230.000000 743.000000 891.000000
1114.000000 690.000000 748.000000
888.000000 1112.000000 644.000000
1067.000000 1583.000000 722.000000
1200.000000 68.000000 919.000000
1159.000000 1039.000000 903.000000
710.000000 600.000000 907.000000
1224.000000 1102.000000 820.000000
1173.000000 1153.000000 1262.000000
1145.000000 833.000000 907.000000
1181.000000 1612.000000 960.000000
1010.000000 1479.000000 699.000000
1206.000000 1202.000000 718.000000
998.000000 1728.000000 828.000000
1220.000000 939.000000 883.000000
945.000000 1008.000000 608.000000
1153.000000 1818.000000 1089.000000
855.000000 1210.000000 1274.000000
1045.000000 1785.000000 917.000000
1251.000000 806.000000 801.000000
1067.000000 1024.000000 597.000000
706.000000 136.000000 760.000000
1153.000000 1192.000000 646.000000
1253.000000 1186.000000 1032.000000
1116.000000 998.000000 921.000000
1287.000000 1644.000000 911.000000
759.000000 70.000000 905.000000
835.000000 1398.000000 924.000000
878.000000 651.000000 919.000000
1051.000000 1079.000000 950.000000
870.000000 1173.000000 679.000000
1043.000000 969.000000 620.000000
702.000000 164.000000 921.000000
802.000000 1077.000000 846.000000
865.000000 1306.000000 732.000000
674.000000 109.000000 901.000000
1079.000000 1724.000000 1076.000000
849.000000 1243.000000 746.000000
1135.000000 56.000000 722.000000
904.000000 1414.000000 703.000000
1165.000000 566.000000 926.000000
969.000000 851.000000 746.000000
849.000000 1153.000000 873.000000
953.000000 906.000000 917.000000
1059.000000 1740.000000 862.000000
1298.000000 1532.000000 942.000000
1079.000000 923.000000 646.000000
788.000000 1534.000000 983.000000
1247.000000 1681.000000 885.000000
896.000000 1675.000000 797.000000
1165.000000 13.000000 1011.000000
1008.000000 1410.000000 985.000000
1157.000000 246.000000 844.000000
1190.000000 5.000000 783.000000
1114.000000 1620.000000 736.000000
1239.000000 509.000000 864.000000
1057.000000 878.000000 703.000000
692.000000 58.000000 767.000000
1124.000000 631.000000 899.000000
753.000000 254.000000 783.000000
951.000000 1122.000000 620.000000
1082.000000 1196.000000 928.000000
1122.000000 315.000000 760.000000
908.000000 1428.000000 991.000000
1230.000000 1137.000000 720.000000
853.000000 1216.000000 1205.000000
984.000000 965.000000 626.000000
800.000000 1214.000000 1140.000000
872.000000 1720.000000 899.000000
1173.000000 1190.000000 1341.000000
778.000000 810.000000 956.000000
971.000000 1597.000000 985.000000
1190.000000 1428.000000 695.000000
1110.000000 423.000000 803.000000
1169.000000 880.000000 677.000000
676.000000 54.000000 840.000000
1008.000000 882.000000 858.000000
1069.000000 1135.000000 618.000000
747.000000 458.000000 820.000000
967.000000 1508.000000 997.000000
761.000000 131.000000 899.000000
1253.000000 1593.000000 950.000000
1088.000000 1809.000000 1131.000000
1110.000000 1512.000000 699.000000
1234.000000 1143.000000 1295.000000
888.000000 1605.000000 767.000000
961.000000 914.000000 658.000000
855.000000 1347.000000 787.000000
896.000000 713.000000 815.000000
1316.000000 1287.000000 887.000000
900.000000 1224.000000 854.000000
686.000000 50.000000 1036.000000
1110.000000 1334.000000 671.000000
719.000000 1342.000000 1021.000000
790.000000 250.000000 936.000000
892.000000 845.000000 952.000000
735.000000 1438.000000 960.000000
1302.000000 1222.000000 972.000000
794.000000 988.000000 801.000000
1247.000000 13.000000 1007.000000
1206.000000 1214.000000 820.000000
1000.000000 1361.000000 673.000000
827.000000 1652.000000 852.000000
1226.000000 17.000000 826.000000
1122.000000 1239.000000 634.000000
933.000000 1587.000000 736.000000
1090.000000 1677.000000 779.000000
849.000000 1432.000000 830.000000
1269.000000 1654.000000 801.000000
1145.000000 1736.000000 879.000000
1029.000000 857.000000 811.000000
1161.000000 986.000000 626.000000
810.000000 333.000000 905.000000
892.000000 1002.000000 632.000000
770.000000 886.000000 832.000000
1181.000000 329.000000 881.000000
745.000000 1385.000000 1052.000000
1067.000000 1020.000000 944.000000
1236.000000 845.000000 891.000000
1214.000000 713.000000 762.000000
861.000000 1504.000000 760.000000
713.000000 443.000000 956.000000
1247.000000 301.000000 809.000000
1259.000000 1563.000000 752.000000
1208.000000 1866.000000 952.000000
1065.000000 1550.000000 989.000000
1190.000000 1188.000000 1152.000000
1212.000000 433.000000 881.000000
1096.000000 1974.000000 944.000000
1236.000000 880.000000 730.000000
847.000000 592.000000 887.000000
1067.000000 910.000000 897.000000
839.000000 543.000000 938.000000
1188.000000 786.000000 718.000000
1079.000000 1342.000000 972.000000
741.000000 350.000000 813.000000
961.000000 1014.000000 921.000000
829.000000 1236.000000 799.000000
794.000000 231.000000 881.000000
1006.000000 1112.000000 946.000000
1232.000000 825.000000 752.000000
849.000000 668.000000 830.000000
1100.000000 592.000000 801.000000
1002.000000 1632.000000 746.000000
861.000000 961.000000 679.000000
1228.000000 1145.000000 785.000000
1287.000000 1391.000000 815.000000
806.000000 452.000000 962.000000
906.000000 1253.000000 932.000000
1198.000000 7.000000 958.000000
1177.000000 1398.000000 979.000000
1126.000000 737.000000 905.000000
904.000000 1495.000000 722.000000
796.000000 574.000000 856.000000
700.000000 547.000000 926.000000
1214.000000 1848.000000 1005.000000
1202.000000 1954.000000 983.000000
914.000000 1608.000000 987.000000
1169.000000 1332.000000 962.000000
1039.000000 1183.000000 628.000000
688.000000 417.000000 860.000000
745.000000 598.000000 1007.000000
1139.000000 837.000000 693.000000
1253.000000 1336.000000 985.000000
1202.000000 1650.000000 762.000000
763.000000 541.000000 1003.000000
684.000000 70.000000 938.000000
1088.000000 694.000000 824.000000
1188.000000 545.000000 758.000000
957.000000 1398.000000 970.000000
1257.000000 1173.000000 1085.000000
851.000000 1177.000000 1317.000000
1014.000000 1846.000000 1089.000000
743.000000 46.000000 834.000000
1108.000000 743.000000 738.000000
878.000000 1057.000000 646.000000
857.000000 1261.000000 838.000000
949.000000 802.000000 801.000000
1167.000000 1530.000000 703.000000
806.000000 278.000000 842.000000
1016.000000 1463.000000 991.000000
1214.000000 1188.000000 1240.000000
1173.000000 1726.000000 924.000000
1163.000000 923.000000 907.000000
1145.000000 1289.000000 656.000000
880.000000 1538.000000 999.000000
757.000000 19.000000 1013.000000
776.000000 1192.000000 1368.000000
806.000000 937.000000 750.000000
829.000000 1355.000000 1056.000000
772.000000 1552.000000 889.000000
1096.000000 152.000000 805.000000
1222.000000 1314.000000 846.000000
1094.000000 649.000000 852.000000
1053.000000 1985.000000 1030.000000
1206.000000 1489.000000 709.000000
796.000000 725.000000 818.000000
757.000000 816.000000 858.000000
1135.000000 613.000000 767.000000
1122.000000 509.000000 787.000000
1031.000000 1179.000000 946.000000
1096.000000 1108.000000 903.000000
1122.000000 352.000000 818.000000
759.000000 370.000000 979.000000
1245.000000 488.000000 799.000000
902.000000 1177.000000 1282.000000
1245.000000 223.000000 785.000000
888.000000 1124.000000 895.000000
1171.000000 1149.000000 866.000000
969.000000 1732.000000 924.000000
971.000000 1171.000000 628.000000
845.000000 1198.000000 718.000000
1206.000000 1255.000000 711.000000
1177.000000 1171.000000 805.000000
1071.000000 808.000000 856.000000
1259.000000 843.000000 838.000000
1234.000000 1249.000000 1081.000000
1224.000000 1196.000000 767.000000
1155.000000 1887.000000 1099.000000
1045.000000 1308.000000 665.000000
994.000000 943.000000 948.000000
814.000000 1289.000000 1136.000000
1222.000000 1171.000000 1339.000000
727.000000 184.000000 756.000000
1002.000000 1530.000000 714.000000
1198.000000 54.000000 738.000000
1261.000000 910.000000 813.000000
1210.000000 1279.000000 891.000000
1245.000000 1059.000000 728.000000
1039.000000 1092.000000 608.000000
1120.000000 1143.000000 620.000000
808.000000 1514.000000 840.000000
1212.000000 101.000000 758.000000
1026.000000 1919.000000 1074.000000
751.000000 1467.000000 909.000000
761.000000 105.000000 762.000000
1177.000000 1789.000000 1007.000000
1283.000000 1267.000000 1052.000000
1177.000000 276.000000 742.000000
902.000000 1351.000000 689.000000
757.000000 74.000000 956.000000
1151.000000 782.000000 917.000000
904.000000 1677.000000 968.000000
1135.000000 1824.000000 905.000000
878.000000 808.000000 730.000000
1010.000000 1750.000000 1074.000000
878.000000 1179.000000 1360.000000
1175.000000 1243.000000 907.000000
1318.000000 1624.000000 826.000000
692.000000 335.000000 909.000000
794.000000 1255.000000 1170.000000
727.000000 227.000000 946.000000
861.000000 639.000000 871.000000
763.000000 203.000000 791.000000
1132.000000 117.000000 722.000000
965.000000 1265.000000 648.000000
1202.000000 1683.000000 911.000000
1143.000000 1695.000000 989.000000
1241.000000 572.000000 850.000000
1090.000000 1395.000000 673.000000
969.000000 855.000000 877.000000
1294.000000 1214.000000 1025.000000
653.000000 28.000000 940.000000
880.000000 1082.000000 921.000000
865.000000 1459.000000 981.000000
1232.000000 9.000000 875.000000
947.000000 1065.000000 940.000000
1069.000000 1858.000000 1123.000000
1012.000000 1773.000000 1023.000000
923.000000 792.000000 915.000000
802.000000 973.000000 875.000000
1255.000000 763.000000 826.000000
737.000000 1298.000000 1036.000000
1169.000000 1693.000000 797.000000
721.000000 515.000000 840.000000
1147.000000 1964.000000 934.000000
1100.000000 837.000000 885.000000
670.000000 117.000000 852.000000
857.000000 733.000000 987.000000
1141.000000 44.000000 826.000000
1192.000000 690.000000 924.000000
1063.000000 1294.000000 964.000000
1090.000000 841.000000 705.000000
812.000000 1183.000000 815.000000
1302.000000 1304.000000 1021.000000
766.000000 696.000000 999.000000
1161.000000 1974.000000 1076.000000
1196.000000 160.000000 736.000000
770.000000 1310.000000 1109.000000
1128.000000 582.000000 895.000000
800.000000 1404.000000 889.000000
1218.000000 1316.000000 940.000000
1186.000000 1292.000000 685.000000
1145.000000 413.000000 756.000000
925.000000 1159.000000 936.000000
1132.000000 9.000000 738.000000
1220.000000 633.000000 907.000000
1239.000000 280.000000 883.000000
827.000000 1593.000000 815.000000
690.000000 258.000000 813.000000
1251.000000 672.000000 848.000000
1224.000000 1345.000000 754.000000
1130.000000 1887.000000 899.000000
1324.000000 1634.000000 881.000000
1108.000000 1506.000000 991.000000
1161.000000 503.000000 758.000000
1261.000000 1465.000000 769.000000
1102.000000 1903.000000 1123.000000
1022.000000 1791.000000 1107.000000
766.000000 288.000000 815.000000
1179.000000 456.000000 742.000000
690.000000 456.000000 897.000000
823.000000 433.000000 871.000000
713.000000 17.000000 989.000000
1188.000000 1106.000000 852.000000
1253.000000 1683.000000 836.000000
1196.000000 152.000000 864.000000
1153.000000 1983.000000 1025.000000
778.000000 131.000000 820.000000
780.000000 1363.000000 1083.000000
1324.000000 1332.000000 868.000000
912.000000 774.000000 781.000000
1047.000000 951.000000 913.000000
1082.000000 1991.000000 1089.000000
821.000000 1206.000000 1240.000000
949.000000 1681.000000 785.000000
1257.000000 1546.000000 962.000000
749.000000 317.000000 968.000000
786.000000 637.000000 856.000000
774.000000 851.000000 930.000000
839.000000 888.000000 958.000000
1234.000000 394.000000 765.000000
1218.000000 313.000000 762.000000
696.000000 321.000000 842.000000
1157.000000 498.000000 907.000000
894.000000 1214.000000 681.000000
1304.000000 1489.000000 793.000000
1116.000000 1414.000000 983.000000
1175.000000 1379.000000 691.000000
1120.000000 1449.000000 681.000000
1012.000000 1263.000000 642.000000
725.000000 397.000000 960.000000
882.000000 1269.000000 769.000000
851.000000 1416.000000 966.000000
713.000000 262.000000 907.000000
1190.000000 1084.000000 654.000000
1071.000000 774.000000 771.000000
1255.000000 996.000000 789.000000
692.000000 505.000000 887.000000
957.000000 1693.000000 954.000000
1141.000000 1595.000000 979.000000
845.000000 1451.000000 777.000000
1043.000000 1677.000000 777.000000
823.000000 490.000000 875.000000
806.000000 1035.000000 807.000000
1214.000000 1041.000000 679.000000
784.000000 1449.000000 881.000000
914.000000 835.000000 714.000000
1245.000000 586.000000 805.000000
1128.000000 953.000000 915.000000
986.000000 1326.000000 960.000000
1094.000000 1650.000000 989.000000
1243.000000 963.000000 732.000000
1010.000000 1754.000000 934.000000
892.000000 700.000000 909.000000
851.000000 1402.000000 879.000000
788.000000 1110.000000 791.000000
994.000000 1661.000000 972.000000
802.000000 295.000000 934.000000
1306.000000 1416.000000 960.000000
1228.000000 1261.000000 932.000000
1214.000000 233.000000 879.000000
1326.000000 1428.000000 830.000000
1190.000000 52.000000 1013.000000
810.000000 352.000000 860.000000
1165.000000 409.000000 873.000000
823.000000 1053.000000 881.000000
959.000000 1420.000000 689.000000
1204.000000 1147.000000 1211.000000
