ply
format ascii 1.0
element vertex 720
property float x
property float y
property float z
end_header
1673.000000 763.000000 624.000000
1.000000 1024.000000 1418.000000
709.000000 1406.000000 584.000000
996.000000 702.000000 1418.000000
264.000000 609.000000 623.000000
2001.000000 871.000000 1418.000000
674.000000 1406.000000 1360.000000
966.000000 701.000000 706.000000
125.000000 1220.000000 806.000000
1206.000000 1198.000000 1051.000000
448.000000 701.000000 1183.000000
1512.000000 701.000000 1170.000000
1283.000000 1062.000000 583.000000
2000.000000 701.000000 970.000000
582.000000 953.000000 583.000000
37.000000 799.000000 987.000000
230.000000 1385.000000 1228.000000
1389.000000 1043.000000 1418.000000
671.000000 982.000000 1418.000000
850.000000 1406.000000 980.000000
1081.000000 1344.000000 1418.000000
1529.000000 1004.000000 909.000000
462.000000 1405.000000 900.000000
19.000000 914.000000 584.000000
822.000000 701.000000 1070.000000
1335.000000 701.000000 790.000000
1071.000000 1356.000000 681.000000
170.000000 701.000000 1418.000000
1735.000000 630.000000 1443.000000
548.000000 701.000000 838.000000
926.000000 1046.000000 583.000000
1787.000000 933.000000 1141.000000
344.000000 1111.000000 1418.000000
393.000000 1252.000000 583.000000
1169.000000 701.000000 1105.000000
2001.000000 871.000000 665.000000
63.000000 1122.000000 1112.000000
993.000000 1030.000000 1418.000000
1315.000000 731.000000 1418.000000
1695.000000 701.000000 925.000000
1667.000000 924.000000 1418.000000
708.000000 701.000000 1341.000000
296.000000 982.000000 583.000000
711.000000 701.000000 584.000000
295.000000 701.000000 951.000000
427.000000 847.000000 1418.000000
1526.000000 1005.000000 1183.000000
1776.000000 936.000000 810.000000
1189.000000 805.000000 583.000000
1903.000000 701.000000 1228.000000
1542.000000 1000.000000 636.000000
489.000000 1405.000000 1167.000000
1047.000000 1385.000000 1157.000000
413.000000 1368.000000 1418.000000
51.000000 705.000000 742.000000
31.000000 834.000000 1244.000000
1297.000000 1090.000000 838.000000
6.000000 995.000000 826.000000
804.000000 1198.000000 1418.000000
225.000000 1377.000000 977.000000
1222.000000 1178.000000 1296.000000
274.000000 1404.000000 736.000000
131.000000 1230.000000 1392.000000
468.000000 737.000000 583.000000
709.000000 1162.000000 583.000000
1433.000000 785.000000 583.000000
80.000000 1146.000000 583.000000
1075.000000 1351.000000 922.000000
1862.000000 701.000000 755.000000
389.000000 614.000000 1444.000000
212.000000 701.000000 1173.000000
566.000000 1191.000000 1418.000000
680.000000 1406.000000 816.000000
1010.000000 701.000000 935.000000
780.000000 701.000000 842.000000
208.000000 927.000000 1418.000000
1195.000000 924.000000 1418.000000
1539.000000 740.000000 1444.000000
2001.000000 871.000000 1119.000000
891.000000 1407.000000 1315.000000
1368.000000 701.000000 1006.000000
890.000000 1285.000000 583.000000
706.000000 1406.000000 1145.000000
1365.000000 1050.000000 1045.000000
513.000000 1405.000000 678.000000
1808.000000 927.000000 584.000000
852.000000 863.000000 1418.000000
611.000000 701.000000 1044.000000
1100.000000 1169.000000 583.000000
867.000000 843.000000 583.000000
885.000000 1406.000000 768.000000
983.000000 701.000000 1205.000000
1969.000000 882.000000 871.000000
1543.000000 701.000000 777.000000
1718.000000 701.000000 1131.000000
194.000000 802.000000 583.000000
191.000000 1310.000000 583.000000
1157.000000 701.000000 1302.000000
365.000000 701.000000 764.000000
1173.000000 1236.000000 797.000000
1952.000000 702.000000 583.000000
1141.000000 701.000000 790.000000
1819.000000 802.000000 1418.000000
1103.000000 975.000000 583.000000
1327.000000 701.000000 1215.000000
1349.000000 1054.000000 1235.000000
1599.000000 605.000000 558.000000
1695.000000 958.000000 980.000000
230.000000 1385.000000 1412.000000
523.000000 701.000000 1353.000000
13.000000 945.000000 1096.000000
1645.000000 701.000000 1299.000000
529.000000 1130.000000 583.000000
620.000000 1406.000000 987.000000
494.000000 1014.000000 1418.000000
757.000000 988.000000 583.000000
1902.000000 901.000000 1273.000000
158.000000 1272.000000 1106.000000
1962.000000 701.000000 1395.000000
56.000000 837.000000 1418.000000
1423.000000 869.000000 1418.000000
61.000000 1120.000000 935.000000
323.000000 701.000000 1308.000000
1098.000000 1169.000000 1418.000000
252.000000 1149.000000 583.000000
1540.000000 701.000000 999.000000
5.000000 1032.000000 1247.000000
137.000000 701.000000 890.000000
1440.000000 1029.000000 768.000000
1035.000000 866.000000 1418.000000
587.000000 1288.000000 583.000000
876.000000 1406.000000 1148.000000
51.000000 705.000000 1125.000000
616.000000 824.000000 1418.000000
1213.000000 701.000000 941.000000
375.000000 1405.000000 1045.000000
1837.000000 701.000000 1012.000000
1857.000000 913.000000 990.000000
1671.000000 965.000000 1257.000000
1537.000000 1002.000000 1350.000000
448.000000 701.000000 1015.000000
827.000000 1034.000000 1418.000000
611.000000 701.000000 1209.000000
1026.000000 792.000000 583.000000
334.000000 1405.000000 584.000000
1394.000000 943.000000 583.000000
1620.000000 979.000000 777.000000
46.000000 737.000000 584.000000
1302.000000 701.000000 632.000000
432.000000 895.000000 583.000000
869.000000 701.000000 1318.000000
31.000000 837.000000 832.000000
1449.000000 701.000000 1318.000000
1120.000000 1298.000000 1270.000000
957.000000 1243.000000 1418.000000
586.000000 701.000000 684.000000
156.000000 1076.000000 1418.000000
1234.000000 1079.000000 1418.000000
209.000000 701.000000 742.000000
1704.000000 701.000000 768.000000
2001.000000 738.000000 816.000000
112.000000 1200.000000 1238.000000
12.000000 1042.000000 678.000000
524.000000 1405.000000 1318.000000
144.000000 1004.000000 583.000000
101.000000 701.000000 1279.000000
1655.000000 911.000000 583.000000
1747.000000 645.000000 560.000000
375.000000 1405.000000 1273.000000
144.000000 1250.000000 954.000000
1226.000000 1174.000000 668.000000
286.000000 795.000000 1444.000000
1819.000000 776.000000 583.000000
816.000000 701.000000 693.000000
693.000000 850.000000 583.000000
308.000000 1256.000000 1418.000000
799.000000 1349.000000 1418.000000
1593.000000 607.000000 1404.000000
2001.000000 722.000000 1118.000000
325.000000 744.000000 624.000000
972.000000 1407.000000 584.000000
764.000000 701.000000 1205.000000
2001.000000 794.000000 1286.000000
173.000000 701.000000 1032.000000
388.000000 1095.000000 583.000000
990.000000 1407.000000 1025.000000
1680.000000 772.000000 1444.000000
1790.000000 701.000000 1318.000000
1449.000000 701.000000 887.000000
393.000000 616.000000 560.000000
1112.000000 1308.000000 1054.000000
1154.000000 786.000000 1418.000000
347.000000 966.000000 1418.000000
1572.000000 992.000000 1048.000000
200.000000 1337.000000 842.000000
1116.000000 701.000000 648.000000
322.000000 1405.000000 871.000000
331.000000 701.000000 1096.000000
1797.000000 930.000000 1363.000000
1873.000000 909.000000 710.000000
15.000000 937.000000 954.000000
1023.000000 1407.000000 803.000000
677.000000 1278.000000 1418.000000
1030.000000 1404.000000 1296.000000
1532.000000 701.000000 635.000000
1259.000000 1135.000000 1164.000000
1033.000000 701.000000 1073.000000
841.000000 1406.000000 632.000000
688.000000 1121.000000 1418.000000
901.000000 708.000000 583.000000
1222.000000 1178.000000 913.000000
1253.000000 927.000000 583.000000
664.000000 701.000000 916.000000
31.000000 834.000000 694.000000
916.000000 701.000000 835.000000
845.000000 1156.000000 583.000000
411.000000 1405.000000 768.000000
265.000000 608.000000 1388.000000
978.000000 921.000000 583.000000
1892.000000 701.000000 887.000000
1397.000000 1041.000000 913.000000
61.000000 1120.000000 1334.000000
1023.000000 1278.000000 583.000000
436.000000 1220.000000 1418.000000
766.000000 1406.000000 1264.000000
1322.000000 1061.000000 710.000000
133.000000 1232.000000 674.000000
2001.000000 833.000000 990.000000
1722.000000 951.000000 690.000000
414.000000 701.000000 887.000000
552.000000 1323.000000 1418.000000
1527.000000 879.000000 583.000000
55.000000 1110.000000 784.000000
759.000000 1285.000000 584.000000
565.000000 824.000000 583.000000
259.000000 1404.000000 1103.000000
551.000000 1405.000000 803.000000
16.000000 931.000000 1328.000000
1173.000000 1236.000000 1170.000000
969.000000 1407.000000 1418.000000
641.000000 1406.000000 694.000000
1553.000000 866.000000 1418.000000
802.000000 744.000000 1418.000000
1418.000000 701.000000 693.000000
667.000000 701.000000 784.000000
858.000000 701.000000 948.000000
504.000000 1405.000000 1041.000000
799.000000 1406.000000 864.000000
1666.000000 966.000000 1128.000000
2001.000000 747.000000 690.000000
605.000000 1406.000000 1222.000000
1120.000000 1027.000000 1418.000000
951.000000 1407.000000 906.000000
973.000000 1162.000000 583.000000
172.000000 1295.000000 1292.000000
910.000000 1127.000000 1418.000000
13.000000 1045.000000 1022.000000
1320.000000 940.000000 1418.000000
1314.000000 818.000000 583.000000
50.000000 714.000000 1392.000000
313.000000 860.000000 583.000000
729.000000 873.000000 1418.000000
1146.000000 1267.000000 642.000000
1910.000000 859.000000 583.000000
438.000000 726.000000 1438.000000
449.000000 1362.000000 583.000000
766.000000 1406.000000 729.000000
648.000000 1056.000000 583.000000
32.000000 825.000000 1109.000000
736.000000 1406.000000 1025.000000
1773.000000 701.000000 668.000000
151.000000 701.000000 636.000000
1291.000000 701.000000 1099.000000
474.000000 1008.000000 583.000000
467.000000 701.000000 700.000000
1293.000000 1095.000000 961.000000
228.000000 1169.000000 1418.000000
190.000000 1322.000000 726.000000
1421.000000 1034.000000 652.000000
1584.000000 701.000000 887.000000
1837.000000 701.000000 1131.000000
92.000000 950.000000 1418.000000
1407.000000 701.000000 1118.000000
590.000000 1405.000000 587.000000
1149.000000 1265.000000 951.000000
1038.000000 701.000000 1308.000000
620.000000 701.000000 1418.000000
1651.000000 701.000000 1035.000000
1577.000000 776.000000 558.000000
1167.000000 1072.000000 583.000000
1099.000000 701.000000 1199.000000
530.000000 902.000000 1418.000000
711.000000 701.000000 1102.000000
1454.000000 1025.000000 1273.000000
273.000000 701.000000 838.000000
1151.000000 1262.000000 1376.000000
1897.000000 902.000000 1157.000000
1421.000000 1034.000000 1144.000000
172.000000 818.000000 1418.000000
1030.000000 701.000000 822.000000
1428.000000 753.000000 1418.000000
1271.000000 701.000000 1315.000000
1238.000000 701.000000 729.000000
1270.000000 837.000000 1418.000000
237.000000 699.000000 558.000000
360.000000 1405.000000 1160.000000
1100.000000 1322.000000 813.000000
599.000000 1406.000000 1106.000000
1467.000000 1021.000000 1003.000000
1784.000000 701.000000 851.000000
1889.000000 892.000000 1418.000000
1039.000000 1069.000000 583.000000
1110.000000 701.000000 990.000000
1321.000000 701.000000 903.000000
875.000000 701.000000 1170.000000
542.000000 701.000000 951.000000
209.000000 701.000000 1312.000000
972.000000 1407.000000 697.000000
14.000000 939.000000 729.000000
1295.000000 1092.000000 1325.000000
1682.000000 962.000000 868.000000
1623.000000 701.000000 1189.000000
1862.000000 912.000000 877.000000
585.000000 1079.000000 1418.000000
940.000000 931.000000 1418.000000
261.000000 1037.000000 1418.000000
753.000000 701.000000 983.000000
927.000000 701.000000 1035.000000
1779.000000 935.000000 1254.000000
943.000000 799.000000 1418.000000
1216.000000 701.000000 1205.000000
208.000000 914.000000 583.000000
2001.000000 841.000000 771.000000
862.000000 953.000000 583.000000
98.000000 1177.000000 1022.000000
431.000000 701.000000 1292.000000
517.000000 701.000000 1099.000000
1621.000000 701.000000 697.000000
1216.000000 1186.000000 1418.000000
236.000000 1395.000000 633.000000
2001.000000 799.000000 584.000000
285.000000 1256.000000 583.000000
480.000000 1121.000000 1418.000000
1856.000000 701.000000 1415.000000
311.000000 688.000000 1444.000000
804.000000 756.000000 583.000000
706.000000 1406.000000 922.000000
91.000000 834.000000 583.000000
957.000000 1407.000000 1218.000000
79.000000 701.000000 980.000000
16.000000 931.000000 1202.000000
342.000000 701.000000 1202.000000
325.000000 1405.000000 1367.000000
1242.000000 1154.000000 771.000000
1100.000000 869.000000 583.000000
1238.000000 701.000000 835.000000
607.000000 727.000000 583.000000
1735.000000 840.000000 583.000000
1207.000000 701.000000 584.000000
44.000000 752.000000 893.000000
1464.000000 966.000000 1418.000000
496.000000 1230.000000 583.000000
1551.000000 701.000000 1347.000000
365.000000 772.000000 1378.000000
1279.000000 1111.000000 1064.000000
1213.000000 701.000000 1402.000000
516.000000 792.000000 1418.000000
75.000000 1142.000000 687.000000
1679.000000 599.000000 624.000000
1099.000000 701.000000 1395.000000
711.000000 701.000000 690.000000
399.000000 1405.000000 665.000000
1991.000000 876.000000 1222.000000
1729.000000 701.000000 1234.000000
1925.000000 795.000000 1418.000000
58.000000 1115.000000 1215.000000
8.000000 1037.000000 1144.000000
901.000000 1330.000000 1418.000000
1876.000000 701.000000 652.000000
41.000000 1017.000000 583.000000
1602.000000 786.000000 1378.000000
386.000000 792.000000 558.000000
1110.000000 701.000000 887.000000
1771.000000 937.000000 916.000000
894.000000 701.000000 1418.000000
702.000000 770.000000 1418.000000
7.000000 1035.000000 919.000000
169.000000 1207.000000 583.000000
1773.000000 936.000000 1041.000000
1655.000000 689.000000 558.000000
608.000000 1406.000000 887.000000
1931.000000 701.000000 1048.000000
211.000000 1285.000000 1418.000000
612.000000 1188.000000 583.000000
1708.000000 702.000000 1378.000000
2001.000000 719.000000 1218.000000
1325.000000 1061.000000 1138.000000
1531.000000 1003.000000 735.000000
1937.000000 891.000000 1045.000000
2001.000000 780.000000 906.000000
997.000000 701.000000 610.000000
1426.000000 701.000000 1221.000000
614.000000 701.000000 1308.000000
826.000000 1059.000000 583.000000
523.000000 701.000000 1254.000000
1628.000000 977.000000 678.000000
782.000000 892.000000 583.000000
1435.000000 701.000000 790.000000
1110.000000 1310.000000 1154.000000
1733.000000 850.000000 1418.000000
38.000000 790.000000 1331.000000
1630.000000 688.000000 1444.000000
1010.000000 1127.000000 1418.000000
169.000000 1098.000000 583.000000
1573.000000 701.000000 1093.000000
1061.000000 1368.000000 584.000000
180.000000 1307.000000 1196.000000
1892.000000 701.000000 1325.000000
1063.000000 701.000000 729.000000
459.000000 701.000000 800.000000
1631.000000 976.000000 1344.000000
1192.000000 1204.000000 583.000000
796.000000 943.000000 1418.000000
319.000000 1405.000000 967.000000
1385.000000 701.000000 584.000000
1980.000000 879.000000 1325.000000
501.000000 1405.000000 1412.000000
1577.000000 991.000000 1264.000000
45.000000 743.000000 1212.000000
294.000000 886.000000 1418.000000
820.000000 1406.000000 1070.000000
1054.000000 1253.000000 1418.000000
599.000000 1406.000000 1418.000000
1101.000000 934.000000 1418.000000
400.000000 686.000000 624.000000
245.000000 701.000000 652.000000
129.000000 701.000000 796.000000
1916.000000 897.000000 793.000000
1743.000000 701.000000 1006.000000
1607.000000 983.000000 958.000000
110.000000 1197.000000 1144.000000
1378.000000 1046.000000 1325.000000
180.000000 1307.000000 1022.000000
94.000000 1146.000000 1418.000000
1735.000000 740.000000 558.000000
241.000000 1402.000000 1321.000000
106.000000 1190.000000 893.000000
966.000000 1407.000000 1115.000000
1554.000000 701.000000 1254.000000
381.000000 679.000000 1378.000000
438.000000 940.000000 1418.000000
405.000000 1040.000000 1418.000000
341.000000 1175.000000 583.000000
676.000000 943.000000 583.000000
24.000000 881.000000 1028.000000
1130.000000 1286.000000 732.000000
265.000000 734.000000 1378.000000
1227.000000 701.000000 1032.000000
1992.000000 701.000000 1308.000000
1360.000000 701.000000 1341.000000
1457.000000 701.000000 1041.000000
1578.000000 956.000000 1418.000000
673.000000 1320.000000 583.000000
1497.000000 1013.000000 1096.000000
1051.000000 776.000000 1418.000000
388.000000 975.000000 583.000000
805.000000 1406.000000 1347.000000
580.000000 979.000000 1418.000000
121.000000 701.000000 1183.000000
325.000000 676.000000 558.000000
1680.000000 599.000000 1378.000000
779.000000 1111.000000 1418.000000
1469.000000 995.000000 583.000000
536.000000 1405.000000 954.000000
2001.000000 799.000000 1176.000000
557.000000 1043.000000 583.000000
299.000000 1072.000000 583.000000
790.000000 1406.000000 1177.000000
1851.000000 915.000000 1080.000000
1762.000000 732.000000 1443.000000
847.000000 701.000000 777.000000
1937.000000 891.000000 954.000000
737.000000 1075.000000 583.000000
111.000000 921.000000 583.000000
262.000000 701.000000 1038.000000
1510.000000 1009.000000 822.000000
278.000000 782.000000 558.000000
462.000000 1405.000000 1254.000000
1951.000000 701.000000 752.000000
689.000000 701.000000 1254.000000
783.000000 701.000000 1292.000000
438.000000 1405.000000 1341.000000
1356.000000 811.000000 1418.000000
204.000000 701.000000 948.000000
952.000000 701.000000 1122.000000
28.000000 855.000000 919.000000
420.000000 701.000000 1099.000000
359.000000 701.000000 1012.000000
937.000000 789.000000 583.000000
1364.000000 1027.000000 583.000000
1376.000000 1047.000000 826.000000
2001.000000 777.000000 1373.000000
1626.000000 701.000000 809.000000
1717.000000 952.000000 1331.000000
1109.000000 760.000000 583.000000
952.000000 701.000000 1289.000000
2001.000000 797.000000 1070.000000
906.000000 1407.000000 1051.000000
996.000000 1323.000000 1418.000000
1815.000000 701.000000 1218.000000
13.000000 1045.000000 1334.000000
856.000000 1406.000000 1235.000000
429.000000 1172.000000 583.000000
238.000000 1397.000000 893.000000
677.000000 1406.000000 1273.000000
1189.000000 988.000000 583.000000
1057.000000 1373.000000 1070.000000
1304.000000 1027.000000 1418.000000
1599.000000 985.000000 861.000000
438.000000 1405.000000 983.000000
265.000000 701.000000 1244.000000
1252.000000 1142.000000 591.000000
1569.000000 686.000000 558.000000
713.000000 1356.000000 1418.000000
469.000000 1301.000000 1418.000000
741.000000 1034.000000 1418.000000
1081.000000 1344.000000 1331.000000
188.000000 1320.000000 925.000000
718.000000 1201.000000 1418.000000
44.000000 752.000000 671.000000
1273.000000 1119.000000 1247.000000
1069.000000 1358.000000 1235.000000
1655.000000 814.000000 558.000000
862.000000 1406.000000 1412.000000
1798.000000 701.000000 935.000000
1608.000000 982.000000 584.000000
1905.000000 773.000000 583.000000
518.000000 895.000000 583.000000
910.000000 1011.000000 1418.000000
1441.000000 872.000000 583.000000
341.000000 1320.000000 583.000000
18.000000 919.000000 864.000000
1728.000000 949.000000 604.000000
1923.000000 701.000000 1144.000000
203.000000 1342.000000 1122.000000
46.000000 740.000000 1048.000000
627.000000 908.000000 1418.000000
1142.000000 1272.000000 867.000000
224.000000 1033.000000 583.000000
477.000000 821.000000 583.000000
761.000000 701.000000 758.000000
531.000000 701.000000 755.000000
1612.000000 656.000000 624.000000
292.000000 701.000000 722.000000
871.000000 1249.000000 1418.000000
1489.000000 811.000000 1418.000000
784.000000 1368.000000 583.000000
763.000000 1272.000000 1418.000000
1175.000000 1234.000000 1254.000000
1456.000000 1024.000000 1357.000000
386.000000 1288.000000 1418.000000
885.000000 1406.000000 852.000000
1701.000000 957.000000 774.000000
1800.000000 929.000000 668.000000
1607.000000 983.000000 1186.000000
38.000000 787.000000 765.000000
153.000000 1265.000000 871.000000
1154.000000 1104.000000 1418.000000
106.000000 1190.000000 1321.000000
319.000000 1339.000000 1418.000000
432.000000 1405.000000 1106.000000
631.000000 701.000000 1128.000000
898.000000 1368.000000 583.000000
1978.000000 701.000000 887.000000
534.000000 701.000000 619.000000
1706.000000 679.000000 624.000000
1242.000000 1154.000000 990.000000
1722.000000 951.000000 1193.000000
83.000000 1037.000000 1418.000000
1914.000000 701.000000 967.000000
52.000000 702.000000 826.000000
894.000000 701.000000 665.000000
1645.000000 844.000000 1418.000000
39.000000 1085.000000 861.000000
316.000000 1405.000000 665.000000
19.000000 910.000000 1408.000000
1469.000000 711.000000 583.000000
111.000000 763.000000 1418.000000
1021.000000 953.000000 1418.000000
11.000000 963.000000 649.000000
1172.000000 908.000000 583.000000
779.000000 1204.000000 583.000000
529.000000 1346.000000 583.000000
1183.000000 1224.000000 716.000000
1735.000000 779.000000 1378.000000
682.000000 1239.000000 583.000000
129.000000 701.000000 1102.000000
1652.000000 970.000000 1048.000000
1291.000000 701.000000 980.000000
1544.000000 658.000000 1444.000000
605.000000 1406.000000 1312.000000
358.000000 1191.000000 1418.000000
311.000000 596.000000 558.000000
1279.000000 1111.000000 661.000000
161.000000 995.000000 1418.000000
241.000000 1402.000000 810.000000
1338.000000 701.000000 706.000000
1198.000000 1005.000000 1418.000000
1023.000000 1407.000000 951.000000
1618.000000 701.000000 961.000000
995.000000 1001.000000 583.000000
1159.000000 1253.000000 1090.000000
310.000000 1405.000000 1225.000000
125.000000 760.000000 583.000000
13.000000 1045.000000 761.000000
345.000000 599.000000 1378.000000
126.000000 701.000000 713.000000
1485.000000 701.000000 1395.000000
757.000000 1406.000000 649.000000
344.000000 628.000000 624.000000
236.000000 659.000000 1444.000000
399.000000 1405.000000 848.000000
1499.000000 701.000000 710.000000
334.000000 1405.000000 790.000000
200.000000 1337.000000 1354.000000
1328.000000 898.000000 583.000000
1036.000000 1397.000000 1376.000000
1784.000000 701.000000 771.000000
665.000000 1406.000000 1061.000000
673.000000 773.000000 583.000000
906.000000 1207.000000 583.000000
1267.000000 753.000000 583.000000
1100.000000 1297.000000 583.000000
933.000000 701.000000 916.000000
1779.000000 701.000000 1077.000000
539.000000 701.000000 1176.000000
1988.000000 877.000000 587.000000
675.000000 701.000000 996.000000
1926.000000 894.000000 652.000000
1220.000000 1181.000000 1215.000000
474.000000 1405.000000 822.000000
1118.000000 857.000000 1418.000000
1607.000000 807.000000 624.000000
621.000000 882.000000 584.000000
1193.000000 701.000000 664.000000
42.000000 1090.000000 623.000000
1848.000000 916.000000 1218.000000
1795.000000 701.000000 590.000000
55.000000 1110.000000 1035.000000
894.000000 1407.000000 690.000000
1435.000000 701.000000 964.000000
121.000000 701.000000 1357.000000
266.000000 1342.000000 583.000000
1870.000000 910.000000 1344.000000
139.000000 1242.000000 1035.000000
173.000000 701.000000 1241.000000
195.000000 701.000000 838.000000
1744.000000 945.000000 1418.000000
1832.000000 853.000000 583.000000
166.000000 1285.000000 794.000000
1706.000000 701.000000 848.000000
781.000000 1406.000000 942.000000
844.000000 701.000000 1244.000000
465.000000 1085.000000 583.000000
351.000000 701.000000 842.000000
384.000000 1405.000000 925.000000
1956.000000 886.000000 726.000000
1250.000000 1145.000000 1360.000000
220.000000 755.000000 1442.000000
122.000000 879.000000 1418.000000
1026.000000 1407.000000 642.000000
1038.000000 701.000000 1151.000000
966.000000 1407.000000 1341.000000
965.000000 1330.000000 583.000000
599.000000 1262.000000 1418.000000
653.000000 701.000000 639.000000
736.000000 701.000000 1415.000000
572.000000 1405.000000 729.000000
1508.000000 802.000000 583.000000
94.000000 1172.000000 755.000000
492.000000 701.000000 893.000000
788.000000 821.000000 1418.000000
625.000000 701.000000 848.000000
692.000000 701.000000 1176.000000
1515.000000 701.000000 848.000000
1811.000000 879.000000 1418.000000
1077.000000 1349.000000 1000.000000
1515.000000 701.000000 925.000000
868.000000 782.000000 1418.000000
1216.000000 1186.000000 835.000000
1382.000000 701.000000 851.000000
775.000000 701.000000 629.000000
172.000000 1295.000000 655.000000
1079.000000 1092.000000 1418.000000
25.000000 872.000000 765.000000
1214.000000 1188.000000 1128.000000
703.000000 701.000000 851.000000
361.000000 809.000000 1444.000000
644.000000 1185.000000 1418.000000
274.000000 1404.000000 1028.000000
1065.000000 1363.000000 758.000000
359.000000 701.000000 687.000000
1229.000000 773.000000 1418.000000
1843.000000 917.000000 781.000000
1604.000000 731.000000 624.000000
627.000000 1336.000000 1418.000000
408.000000 763.000000 624.000000
948.000000 1407.000000 810.000000
10.000000 969.000000 1022.000000
1036.000000 1397.000000 877.000000
1297.000000 988.000000 583.000000
1443.000000 1028.000000 855.000000
1951.000000 701.000000 658.000000
2001.000000 727.000000 1041.000000
811.000000 1406.000000 790.000000
486.000000 1405.000000 748.000000
930.000000 1407.000000 980.000000
212.000000 701.000000 1096.000000
762.000000 818.000000 583.000000
1934.000000 701.000000 825.000000
