ply
format ascii 1.0
element vertex 752
property float x
property float y
property float z
end_header
1137.000000 923.000000 1492.000000
1594.000000 1037.000000 1.000000
852.000000 1594.000000 869.000000
416.000000 1054.000000 1942.000000
849.000000 409.000000 869.000000
1471.000000 931.000000 775.000000
827.000000 1000.000000 982.000000
662.000000 1086.000000 1505.000000
1248.000000 1193.000000 1110.000000
827.000000 1020.000000 1882.000000
1479.000000 1068.000000 391.000000
985.000000 1265.000000 1386.000000
1130.000000 841.000000 1128.000000
836.000000 837.000000 1325.000000
960.000000 1297.000000 955.000000
951.000000 714.000000 892.000000
875.000000 810.000000 1643.000000
1015.000000 1145.000000 1671.000000
1297.000000 1148.000000 833.000000
593.000000 977.000000 1747.000000
1362.000000 935.000000 1024.000000
867.000000 1085.000000 1230.000000
1282.000000 996.000000 1283.000000
1501.000000 1152.000000 638.000000
821.000000 1262.000000 1571.000000
1049.000000 1062.000000 1074.000000
633.000000 1022.000000 1999.000000
1169.000000 1137.000000 1425.000000
724.000000 1157.000000 1741.000000
1050.000000 813.000000 1328.000000
921.000000 884.000000 1133.000000
1056.000000 1242.000000 1186.000000
1540.000000 1002.000000 201.000000
857.000000 567.000000 1004.000000
1035.000000 938.000000 1674.000000
754.000000 902.000000 1503.000000
1515.000000 933.000000 579.000000
1183.000000 897.000000 942.000000
847.000000 1161.000000 866.000000
786.000000 814.000000 931.000000
797.000000 1211.000000 1384.000000
832.000000 1440.000000 988.000000
947.000000 885.000000 1479.000000
420.000000 1046.000000 1755.000000
747.000000 1014.000000 1353.000000
568.000000 1124.000000 1858.000000
1357.000000 1048.000000 688.000000
953.000000 899.000000 894.000000
762.000000 906.000000 1752.000000
1208.000000 1075.000000 975.000000
895.000000 1156.000000 1050.000000
1377.000000 1130.000000 992.000000
1326.000000 979.000000 859.000000
1139.000000 1069.000000 1582.000000
1463.000000 1129.000000 802.000000
995.000000 1100.000000 919.000000
1196.000000 1197.000000 1270.000000
1061.000000 1214.000000 1526.000000
884.000000 1130.000000 1770.000000
529.000000 944.000000 1896.000000
1325.000000 1051.000000 1135.000000
904.000000 1242.000000 1247.000000
1414.000000 1051.000000 538.000000
1276.000000 900.000000 1155.000000
641.000000 959.000000 1598.000000
1115.000000 1196.000000 1024.000000
956.000000 1480.000000 900.000000
1191.000000 868.000000 1284.000000
912.000000 948.000000 1771.000000
928.000000 543.000000 868.000000
816.000000 1312.000000 901.000000
680.000000 949.000000 1873.000000
941.000000 439.000000 986.000000
906.000000 1572.000000 1006.000000
920.000000 1183.000000 1491.000000
918.000000 806.000000 1003.000000
628.000000 1096.000000 1648.000000
706.000000 1102.000000 1900.000000
814.000000 669.000000 907.000000
1231.000000 1006.000000 1418.000000
891.000000 1023.000000 856.000000
1150.000000 964.000000 1062.000000
1063.000000 1174.000000 1312.000000
868.000000 947.000000 1245.000000
957.000000 955.000000 1020.000000
902.000000 1223.000000 1673.000000
846.000000 801.000000 1510.000000
1031.000000 878.000000 1211.000000
726.000000 1170.000000 1593.000000
948.000000 1015.000000 1148.000000
751.000000 856.000000 1628.000000
996.000000 840.000000 1594.000000
797.000000 1225.000000 997.000000
999.000000 1040.000000 1746.000000
1132.000000 1147.000000 1143.000000
1059.000000 825.000000 1456.000000
514.000000 1039.000000 1667.000000
1267.000000 1187.000000 954.000000
939.000000 798.000000 1387.000000
532.000000 1090.000000 1973.000000
925.000000 819.000000 1240.000000
906.000000 681.000000 1007.000000
1267.000000 1106.000000 1228.000000
1256.000000 873.000000 1037.000000
1115.000000 906.000000 1373.000000
828.000000 922.000000 882.000000
916.000000 1372.000000 862.000000
1004.000000 1170.000000 1104.000000
840.000000 1468.000000 871.000000
1040.000000 939.000000 1108.000000
879.000000 805.000000 856.000000
816.000000 519.000000 901.000000
1096.000000 1230.000000 1413.000000
1301.000000 885.000000 928.000000
907.000000 1184.000000 1350.000000
962.000000 1255.000000 1575.000000
1244.000000 1096.000000 1343.000000
739.000000 1115.000000 1421.000000
798.000000 1112.000000 962.000000
688.000000 985.000000 1452.000000
802.000000 921.000000 1398.000000
811.000000 1111.000000 1328.000000
1403.000000 1030.000000 791.000000
863.000000 1329.000000 1006.000000
795.000000 1179.000000 1497.000000
828.000000 426.000000 981.000000
1369.000000 1080.000000 889.000000
1088.000000 875.000000 1028.000000
951.000000 1204.000000 892.000000
906.000000 1167.000000 1163.000000
1114.000000 960.000000 1597.000000
1409.000000 934.000000 920.000000
581.000000 1089.000000 1752.000000
1443.000000 1000.000000 634.000000
1517.000000 999.000000 311.000000
1567.000000 1058.000000 108.000000
788.000000 1119.000000 1826.000000
790.000000 1216.000000 1672.000000
737.000000 1007.000000 1949.000000
941.000000 1411.000000 986.000000
846.000000 890.000000 998.000000
442.000000 994.000000 1850.000000
984.000000 1197.000000 997.000000
955.000000 1590.000000 908.000000
923.000000 1062.000000 1000.000000
883.000000 1266.000000 1429.000000
1078.000000 1039.000000 1669.000000
1361.000000 925.000000 770.000000
957.000000 593.000000 961.000000
935.000000 894.000000 1679.000000
1284.000000 1112.000000 1046.000000
1255.000000 968.000000 984.000000
1481.000000 996.000000 472.000000
814.000000 1542.000000 957.000000
671.000000 921.000000 1696.000000
1005.000000 1258.000000 1280.000000
884.000000 884.000000 1565.000000
1002.000000 887.000000 1388.000000
1264.000000 1061.000000 886.000000
1010.000000 1174.000000 1437.000000
1422.000000 1136.000000 705.000000
1178.000000 912.000000 1190.000000
1357.000000 1027.000000 977.000000
987.000000 806.000000 926.000000
1040.000000 902.000000 1522.000000
1480.000000 912.000000 674.000000
1192.000000 1064.000000 1494.000000
905.000000 1040.000000 1816.000000
1147.000000 1095.000000 1055.000000
493.000000 995.000000 1977.000000
472.000000 1090.000000 1865.000000
962.000000 998.000000 924.000000
946.000000 442.000000 885.000000
661.000000 1129.000000 1814.000000
880.000000 1182.000000 1584.000000
1118.000000 832.000000 1227.000000
1031.000000 841.000000 1119.000000
832.000000 744.000000 988.000000
1216.000000 944.000000 1342.000000
898.000000 636.000000 857.000000
1078.000000 1145.000000 1595.000000
929.000000 873.000000 1322.000000
811.000000 1021.000000 1279.000000
772.000000 950.000000 1839.000000
1309.000000 1055.000000 798.000000
839.000000 885.000000 1696.000000
818.000000 828.000000 1421.000000
942.000000 799.000000 1524.000000
1129.000000 1141.000000 1513.000000
499.000000 993.000000 1772.000000
891.000000 1272.000000 856.000000
989.000000 1261.000000 1483.000000
1173.000000 1170.000000 952.000000
620.000000 1107.000000 1941.000000
1305.000000 968.000000 1093.000000
1351.000000 1171.000000 910.000000
1110.000000 1178.000000 1230.000000
900.000000 1240.000000 1008.000000
612.000000 955.000000 1938.000000
1376.000000 1156.000000 784.000000
1187.000000 1213.000000 1178.000000
978.000000 1197.000000 1214.000000
1298.000000 982.000000 1192.000000
597.000000 940.000000 1833.000000
1083.000000 894.000000 1287.000000
992.000000 1168.000000 1567.000000
1162.000000 1198.000000 1356.000000
832.000000 1217.000000 1299.000000
986.000000 867.000000 1008.000000
1255.000000 917.000000 1242.000000
894.000000 876.000000 1406.000000
945.000000 1100.000000 1116.000000
1101.000000 1225.000000 1109.000000
1207.000000 1202.000000 1030.000000
922.000000 1111.000000 865.000000
679.000000 930.000000 1785.000000
816.000000 1043.000000 901.000000
1359.000000 896.000000 855.000000
895.000000 1271.000000 1518.000000
1300.000000 1100.000000 958.000000
626.000000 1044.000000 1576.000000
793.000000 1227.000000 890.000000
1301.000000 1136.000000 1152.000000
1139.000000 1025.000000 999.000000
618.000000 1010.000000 1666.000000
1171.000000 857.000000 1052.000000
1412.000000 986.000000 715.000000
891.000000 1159.000000 1268.000000
964.000000 1120.000000 1739.000000
852.000000 922.000000 1326.000000
810.000000 1163.000000 1740.000000
502.000000 1079.000000 1785.000000
867.000000 720.000000 858.000000
1166.000000 992.000000 1534.000000
1224.000000 937.000000 1096.000000
776.000000 833.000000 1549.000000
706.000000 908.000000 1575.000000
993.000000 1112.000000 1004.000000
812.000000 1399.000000 913.000000
1526.000000 1065.000000 257.000000
1181.000000 935.000000 1420.000000
962.000000 511.000000 943.000000
832.000000 646.000000 988.000000
860.000000 1183.000000 1432.000000
941.000000 1495.000000 986.000000
1007.000000 811.000000 1256.000000
1120.000000 925.000000 1131.000000
992.000000 1183.000000 1355.000000
1120.000000 1233.000000 1292.000000
927.000000 1263.000000 1326.000000
909.000000 875.000000 1051.000000
687.000000 1155.000000 1665.000000
1402.000000 1071.000000 620.000000
719.000000 1146.000000 1511.000000
904.000000 1529.000000 858.000000
1273.000000 915.000000 856.000000
1421.000000 1143.000000 872.000000
1219.000000 1138.000000 1166.000000
1340.000000 1052.000000 1054.000000
1211.000000 860.000000 1124.000000
1058.000000 1251.000000 1343.000000
851.000000 966.000000 1823.000000
831.000000 878.000000 1486.000000
985.000000 959.000000 1736.000000
661.000000 1123.000000 1578.000000
1128.000000 839.000000 1327.000000
881.000000 489.000000 1009.000000
972.000000 830.000000 1174.000000
431.000000 974.000000 1928.000000
896.000000 952.000000 1169.000000
649.000000 1127.000000 1731.000000
1075.000000 903.000000 1443.000000
824.000000 1253.000000 1484.000000
975.000000 1207.000000 1639.000000
1426.000000 938.000000 841.000000
651.000000 989.000000 1523.000000
955.000000 742.000000 967.000000
1044.000000 904.000000 1602.000000
1005.000000 880.000000 1297.000000
982.000000 802.000000 1455.000000
1341.000000 1000.000000 750.000000
834.000000 593.000000 876.000000
1459.000000 1072.000000 476.000000
1216.000000 1125.000000 1085.000000
944.000000 953.000000 1099.000000
1320.000000 969.000000 938.000000
873.000000 483.000000 857.000000
1220.000000 1012.000000 929.000000
1089.000000 1160.000000 1448.000000
891.000000 1265.000000 1607.000000
803.000000 1188.000000 1598.000000
825.000000 880.000000 1618.000000
892.000000 405.000000 934.000000
1499.000000 1129.000000 713.000000
688.000000 1069.000000 1968.000000
815.000000 819.000000 1003.000000
940.000000 1204.000000 1419.000000
1242.000000 1156.000000 887.000000
902.000000 796.000000 1455.000000
1017.000000 821.000000 1522.000000
774.000000 1067.000000 1913.000000
1317.000000 1174.000000 1013.000000
953.000000 1200.000000 1290.000000
898.000000 942.000000 857.000000
980.000000 886.000000 1083.000000
913.000000 890.000000 1213.000000
882.000000 947.000000 1035.000000
1224.000000 1083.000000 1416.000000
805.000000 850.000000 866.000000
1079.000000 992.000000 1066.000000
706.000000 1047.000000 1410.000000
866.000000 1597.000000 944.000000
962.000000 1372.000000 924.000000
1061.000000 1170.000000 1158.000000
959.000000 1218.000000 1142.000000
837.000000 919.000000 1765.000000
957.000000 803.000000 1313.000000
857.000000 850.000000 1252.000000
869.000000 1505.000000 1007.000000
1176.000000 1214.000000 1101.000000
1457.000000 993.000000 560.000000
959.000000 892.000000 1553.000000
812.000000 744.000000 913.000000
1264.000000 1024.000000 1351.000000
960.000000 668.000000 955.000000
891.000000 1021.000000 1198.000000
789.000000 951.000000 939.000000
567.000000 989.000000 1987.000000
845.000000 1109.000000 1020.000000
1498.000000 996.000000 383.000000
858.000000 1249.000000 1361.000000
849.000000 1080.000000 1844.000000
1431.000000 1053.000000 686.000000
739.000000 961.000000 1404.000000
1104.000000 837.000000 1397.000000
1006.000000 1007.000000 1103.000000
469.000000 1105.000000 1938.000000
1136.000000 1161.000000 1298.000000
832.000000 801.000000 1584.000000
1222.000000 1129.000000 1281.000000
1305.000000 1043.000000 1232.000000
1100.000000 1163.000000 1374.000000
810.000000 582.000000 944.000000
763.000000 1221.000000 1547.000000
1390.000000 1083.000000 743.000000
931.000000 807.000000 1597.000000
912.000000 1162.000000 1711.000000
1372.000000 1010.000000 907.000000
1075.000000 1120.000000 1108.000000
1023.000000 808.000000 1396.000000
946.000000 1308.000000 885.000000
797.000000 968.000000 1328.000000
1099.000000 891.000000 1191.000000
1041.000000 1198.000000 1248.000000
418.000000 1057.000000 1826.000000
632.000000 1045.000000 1728.000000
1052.000000 1198.000000 1059.000000
1424.000000 916.000000 723.000000
819.000000 501.000000 970.000000
1036.000000 1085.000000 1705.000000
1509.000000 1068.000000 326.000000
809.000000 881.000000 938.000000
1314.000000 889.000000 999.000000
1180.000000 884.000000 1354.000000
1369.000000 1087.000000 818.000000
799.000000 1140.000000 1393.000000
735.000000 892.000000 1688.000000
819.000000 1287.000000 970.000000
463.000000 1014.000000 1709.000000
855.000000 1089.000000 862.000000
1312.000000 902.000000 1069.000000
951.000000 606.000000 892.000000
849.000000 1182.000000 1652.000000
1068.000000 827.000000 1178.000000
904.000000 1441.000000 858.000000
810.000000 1181.000000 944.000000
1200.000000 906.000000 1011.000000
529.000000 955.000000 1827.000000
1241.000000 1175.000000 1221.000000
910.000000 1087.000000 1175.000000
851.000000 1181.000000 1001.000000
941.000000 832.000000 879.000000
957.000000 917.000000 961.000000
871.000000 809.000000 1378.000000
1196.000000 980.000000 1472.000000
1141.000000 903.000000 1248.000000
1191.000000 980.000000 1008.000000
858.000000 1199.000000 1518.000000
812.000000 451.000000 914.000000
994.000000 1238.000000 942.000000
873.000000 874.000000 857.000000
1307.000000 1162.000000 1088.000000
565.000000 1031.000000 1714.000000
1244.000000 876.000000 967.000000
673.000000 983.000000 1958.000000
755.000000 1082.000000 1361.000000
1174.000000 1156.000000 1215.000000
960.000000 1148.000000 955.000000
696.000000 939.000000 1505.000000
1281.000000 1065.000000 1294.000000
809.000000 1474.000000 932.000000
811.000000 831.000000 1664.000000
1074.000000 1105.000000 1651.000000
977.000000 898.000000 1625.000000
1037.000000 997.000000 1709.000000
1052.000000 1243.000000 1464.000000
1140.000000 883.000000 1437.000000
1081.000000 881.000000 1096.000000
1192.000000 1136.000000 1361.000000
849.000000 1361.000000 865.000000
951.000000 1003.000000 1779.000000
1093.000000 867.000000 1498.000000
960.000000 1140.000000 1061.000000
1244.000000 1150.000000 1006.000000
929.000000 1345.000000 996.000000
822.000000 1374.000000 976.000000
643.000000 1122.000000 1879.000000
999.000000 1198.000000 1505.000000
1123.000000 1231.000000 1189.000000
929.000000 536.000000 996.000000
971.000000 869.000000 1240.000000
1577.000000 1011.000000 61.000000
1035.000000 1227.000000 1124.000000
824.000000 1536.000000 888.000000
1011.000000 894.000000 1461.000000
906.000000 614.000000 1007.000000
946.000000 1050.000000 885.000000
833.000000 1256.000000 1640.000000
529.000000 1121.000000 1912.000000
1549.000000 1062.000000 172.000000
881.000000 1393.000000 1009.000000
1360.000000 903.000000 953.000000
727.000000 1136.000000 1804.000000
1458.000000 1055.000000 588.000000
773.000000 984.000000 1896.000000
1167.000000 847.000000 1183.000000
902.000000 870.000000 1627.000000
1060.000000 871.000000 1361.000000
772.000000 856.000000 1459.000000
1101.000000 917.000000 1549.000000
1274.000000 992.000000 897.000000
893.000000 815.000000 1301.000000
1141.000000 882.000000 990.000000
1397.000000 1012.000000 589.000000
593.000000 1073.000000 1990.000000
950.000000 1069.000000 1778.000000
1366.000000 979.000000 807.000000
818.000000 946.000000 1017.000000
1302.000000 960.000000 1028.000000
1362.000000 1169.000000 846.000000
1404.000000 1129.000000 933.000000
1046.000000 1197.000000 1388.000000
840.000000 986.000000 871.000000
887.000000 1006.000000 1009.000000
957.000000 1553.000000 961.000000
1231.000000 876.000000 1198.000000
1349.000000 1131.000000 1050.000000
891.000000 862.000000 1503.000000
1007.000000 1105.000000 1097.000000
892.000000 907.000000 1725.000000
1083.000000 976.000000 1651.000000
894.000000 744.000000 1009.000000
785.000000 1218.000000 1447.000000
678.000000 917.000000 1632.000000
923.000000 1183.000000 1101.000000
1236.000000 899.000000 906.000000
1116.000000 1022.000000 1619.000000
1161.000000 1168.000000 1059.000000
932.000000 1203.000000 1553.000000
1382.000000 1000.000000 654.000000
955.000000 859.000000 1421.000000
1070.000000 819.000000 1267.000000
919.000000 1175.000000 1634.000000
850.000000 1153.000000 1357.000000
1169.000000 901.000000 1098.000000
995.000000 969.000000 971.000000
1515.000000 1133.000000 579.000000
823.000000 876.000000 1549.000000
898.000000 1204.000000 857.000000
946.000000 1269.000000 1436.000000
888.000000 409.000000 1003.000000
897.000000 899.000000 1274.000000
939.000000 1202.000000 1041.000000
1048.000000 892.000000 1152.000000
1556.000000 1005.000000 140.000000
931.000000 1126.000000 1007.000000
1266.000000 1190.000000 1049.000000
479.000000 1056.000000 1977.000000
928.000000 767.000000 868.000000
914.000000 1224.000000 1188.000000
1017.000000 1226.000000 1569.000000
1315.000000 1081.000000 856.000000
1208.000000 928.000000 1282.000000
744.000000 1179.000000 1652.000000
816.000000 1118.000000 901.000000
600.000000 1123.000000 1803.000000
1100.000000 1055.000000 1037.000000
1141.000000 906.000000 1310.000000
1279.000000 1021.000000 841.000000
1086.000000 1242.000000 1241.000000
1454.000000 1019.000000 420.000000
1318.000000 920.000000 814.000000
1387.000000 1034.000000 852.000000
1416.000000 905.000000 789.000000
900.000000 1452.000000 1008.000000
961.000000 1054.000000 949.000000
1027.000000 1174.000000 1617.000000
509.000000 1049.000000 1732.000000
1301.000000 1082.000000 1183.000000
1297.000000 1142.000000 910.000000
887.000000 795.000000 1555.000000
857.000000 845.000000 1039.000000
1474.000000 1044.000000 529.000000
953.000000 407.000000 935.000000
1264.000000 879.000000 1099.000000
672.000000 1043.000000 1463.000000
1301.000000 1099.000000 1103.000000
955.000000 843.000000 1640.000000
439.000000 1043.000000 1886.000000
1206.000000 1103.000000 1029.000000
963.000000 1252.000000 1236.000000
1238.000000 936.000000 1186.000000
1048.000000 1164.000000 1493.000000
1340.000000 1082.000000 1000.000000
760.000000 922.000000 1446.000000
890.000000 853.000000 1684.000000
850.000000 1116.000000 1280.000000
1143.000000 1191.000000 1416.000000
636.000000 953.000000 1658.000000
960.000000 855.000000 955.000000
1241.000000 951.000000 1040.000000
1324.000000 928.000000 892.000000
827.000000 1060.000000 982.000000
1041.000000 1254.000000 1406.000000
814.000000 1591.000000 915.000000
1433.000000 1159.000000 759.000000
1431.000000 1005.000000 504.000000
442.000000 1003.000000 1790.000000
1043.000000 859.000000 1563.000000
867.000000 547.000000 858.000000
472.000000 958.000000 1887.000000
841.000000 863.000000 1379.000000
916.000000 909.000000 1003.000000
1113.000000 1231.000000 1353.000000
701.000000 1110.000000 1466.000000
760.000000 884.000000 1575.000000
776.000000 1154.000000 1447.000000
1511.000000 1008.000000 253.000000
935.000000 986.000000 873.000000
1013.000000 1204.000000 1304.000000
1153.000000 1223.000000 1239.000000
916.000000 1589.000000 864.000000
941.000000 1005.000000 986.000000
828.000000 792.000000 882.000000
845.000000 1232.000000 1030.000000
996.000000 1242.000000 1181.000000
782.000000 1057.000000 1315.000000
852.000000 1006.000000 1239.000000
1159.000000 1094.000000 1533.000000
886.000000 1140.000000 1213.000000
847.000000 1231.000000 866.000000
1337.000000 1058.000000 745.000000
640.000000 943.000000 1742.000000
1186.000000 1159.000000 1123.000000
735.000000 927.000000 1800.000000
963.000000 1435.000000 936.000000
782.000000 1239.000000 1616.000000
961.000000 1165.000000 1678.000000
830.000000 1245.000000 1419.000000
1170.000000 1117.000000 1480.000000
531.000000 958.000000 1952.000000
921.000000 1267.000000 1384.000000
840.000000 1581.000000 993.000000
518.000000 1108.000000 1834.000000
531.000000 1036.000000 1993.000000
785.000000 1245.000000 944.000000
1095.000000 1208.000000 1479.000000
1357.000000 1076.000000 945.000000
1343.000000 1000.000000 1027.000000
838.000000 890.000000 1430.000000
830.000000 1132.000000 1789.000000
1082.000000 1162.000000 1539.000000
860.000000 1186.000000 1708.000000
1280.000000 956.000000 1143.000000
982.000000 1056.000000 1120.000000
1518.000000 935.000000 636.000000
985.000000 918.000000 1693.000000
766.000000 1176.000000 1706.000000
917.000000 845.000000 1177.000000
813.000000 700.000000 957.000000
1495.000000 937.000000 723.000000
923.000000 1184.000000 1228.000000
755.000000 1102.000000 1871.000000
624.000000 942.000000 1883.000000
900.000000 917.000000 1092.000000
1260.000000 1177.000000 1165.000000
1251.000000 1080.000000 938.000000
1122.000000 1121.000000 1568.000000
718.000000 972.000000 1909.000000
984.000000 871.000000 1137.000000
833.000000 969.000000 1285.000000
970.000000 1257.000000 895.000000
880.000000 1246.000000 1300.000000
1109.000000 1179.000000 1078.000000
905.000000 407.000000 868.000000
1281.000000 922.000000 965.000000
708.000000 911.000000 1738.000000
1206.000000 1170.000000 1318.000000
1497.000000 1048.000000 441.000000
979.000000 860.000000 1343.000000
956.000000 1138.000000 900.000000
921.000000 1597.000000 953.000000
899.000000 1135.000000 1116.000000
1210.000000 912.000000 1144.000000
1319.000000 996.000000 1140.000000
1346.000000 1168.000000 966.000000
1009.000000 1193.000000 1159.000000
788.000000 880.000000 1675.000000
1120.000000 850.000000 1072.000000
669.000000 943.000000 1553.000000
947.000000 1247.000000 980.000000
849.000000 662.000000 865.000000
982.000000 1264.000000 1331.000000
946.000000 1418.000000 885.000000
1419.000000 1159.000000 818.000000
1217.000000 1192.000000 977.000000
906.000000 1295.000000 1007.000000
956.000000 660.000000 900.000000
988.000000 866.000000 1510.000000
1059.000000 1250.000000 1288.000000
1315.000000 1001.000000 805.000000
863.000000 793.000000 1006.000000
775.000000 1146.000000 1780.000000
1180.000000 1030.000000 962.000000
799.000000 826.000000 1498.000000
1017.000000 819.000000 1203.000000
790.000000 821.000000 1613.000000
950.000000 1266.000000 1523.000000
1255.000000 1124.000000 1123.000000
1417.000000 1036.000000 738.000000
989.000000 817.000000 981.000000
1022.000000 1250.000000 1229.000000
1143.000000 841.000000 1275.000000
1174.000000 1166.000000 1006.000000
888.000000 890.000000 1353.000000
1456.000000 1134.000000 662.000000
933.000000 1242.000000 1633.000000
889.000000 1091.000000 1808.000000
999.000000 804.000000 1347.000000
866.000000 1013.000000 1845.000000
1189.000000 858.000000 1231.000000
550.000000 971.000000 1780.000000
1036.000000 865.000000 1071.000000
944.000000 925.000000 1728.000000
1256.000000 1100.000000 990.000000
899.000000 987.000000 1809.000000
792.000000 928.000000 1793.000000
701.000000 1121.000000 1849.000000
1321.000000 1094.000000 909.000000
1477.000000 1031.000000 348.000000
1165.000000 1071.000000 1008.000000
866.000000 1200.000000 1381.000000
1140.000000 1162.000000 1464.000000
932.000000 858.000000 1002.000000
857.000000 1217.000000 1251.000000
916.000000 686.000000 862.000000
958.000000 1533.000000 906.000000
445.000000 1015.000000 1964.000000
1256.000000 976.000000 1325.000000
851.000000 696.000000 1001.000000
619.000000 1006.000000 1613.000000
809.000000 1000.000000 932.000000
650.000000 938.000000 1830.000000
838.000000 406.000000 925.000000
951.000000 501.000000 892.000000
812.000000 1194.000000 1546.000000
1333.000000 1013.000000 1090.000000
1153.000000 1124.000000 1099.000000
1273.000000 968.000000 1239.000000
961.000000 561.000000 918.000000
1045.000000 867.000000 1262.000000
1219.000000 961.000000 1392.000000
935.000000 1178.000000 991.000000
642.000000 1041.000000 1525.000000
964.000000 1205.000000 1466.000000
1039.000000 870.000000 1423.000000
805.000000 1082.000000 1873.000000
937.000000 875.000000 1374.000000
1310.000000 920.000000 1119.000000
431.000000 1092.000000 1904.000000
480.000000 958.000000 1939.000000
831.000000 1069.000000 1266.000000
939.000000 921.000000 1057.000000
850.000000 807.000000 1457.000000
549.000000 1101.000000 1792.000000
1216.000000 1042.000000 1453.000000
992.000000 937.000000 1086.000000
1107.000000 1074.000000 1625.000000
961.000000 759.000000 918.000000
1165.000000 1043.000000 1545.000000
1317.000000 1030.000000 1182.000000
736.000000 1059.000000 1949.000000
1144.000000 1223.000000 1141.000000
840.000000 1416.000000 871.000000
855.000000 1309.000000 862.000000
1221.000000 1157.000000 937.000000
1398.000000 985.000000 765.000000
628.000000 982.000000 1709.000000
1219.000000 863.000000 1072.000000
483.000000 981.000000 1821.000000
1089.000000 954.000000 1100.000000
628.000000 1089.000000 1701.000000
1052.000000 1187.000000 1573.000000
581.000000 1123.000000 1908.000000
963.000000 461.000000 930.000000
1370.000000 1132.000000 882.000000
1144.000000 1008.000000 1578.000000
958.000000 950.000000 906.000000
849.000000 1228.000000 1680.000000
811.000000 976.000000 1860.000000
887.000000 1207.000000 1045.000000
608.000000 944.000000 1783.000000
683.000000 1139.000000 1769.000000
658.000000 1133.000000 1628.000000
1065.000000 1187.000000 1110.000000
749.000000 1172.000000 1544.000000
1147.000000 865.000000 1388.000000
1020.000000 1244.000000 1521.000000
944.000000 870.000000 1598.000000
1135.000000 892.000000 1043.000000
1138.000000 952.000000 1550.000000
880.000000 875.000000 1455.000000
948.000000 1173.000000 1592.000000
904.000000 1322.000000 858.000000
1378.000000 933.000000 825.000000
1373.000000 901.000000 904.000000
782.000000 1228.000000 1498.000000
1102.000000 851.000000 1450.000000
1289.000000 1142.000000 984.000000
827.000000 1490.000000 982.000000
1362.000000 1000.000000 704.000000
991.000000 1204.000000 1401.000000
1109.000000 1174.000000 1179.000000
1100.000000 1091.000000 1073.000000
1164.000000 1210.000000 1307.000000
962.000000 1197.000000 943.000000
1008.000000 900.000000 1562.000000
815.000000 788.000000 963.000000
1376.000000 985.000000 857.000000
857.000000 1279.000000 1004.000000
1120.000000 996.000000 1037.000000
819.000000 925.000000 970.000000
