ply
format ascii 1.0
element vertex 758
property float x
property float y
property float z
end_header
1116.000000 929.000000 822.000000
878.000000 1987.000000 1153.000000
756.000000 51.000000 1234.000000
675.000000 717.000000 1282.000000
698.000000 1372.000000 1046.000000
1441.000000 1703.000000 1056.000000
874.000000 428.000000 915.000000
1006.000000 1612.000000 758.000000
1124.000000 966.000000 1302.000000
1112.000000 1440.000000 1139.000000
710.000000 962.000000 938.000000
942.000000 18.000000 909.000000
754.000000 1709.000000 979.000000
776.000000 392.000000 1240.000000
1193.000000 1873.000000 1217.000000
975.000000 1227.000000 909.000000
959.000000 840.000000 1074.000000
853.000000 1107.000000 1155.000000
855.000000 854.000000 702.000000
1033.000000 1802.000000 981.000000
766.000000 674.000000 971.000000
565.000000 937.000000 1166.000000
1085.000000 1059.000000 1072.000000
886.000000 1529.000000 1085.000000
899.000000 216.000000 1124.000000
1207.000000 1645.000000 1054.000000
892.000000 1755.000000 1161.000000
1043.000000 1448.000000 917.000000
816.000000 897.000000 1248.000000
747.000000 1189.000000 915.000000
882.000000 1057.000000 793.000000
928.000000 1314.000000 1124.000000
650.000000 1123.000000 1093.000000
832.000000 1444.000000 899.000000
1393.000000 1831.000000 1207.000000
814.000000 589.000000 1209.000000
919.000000 216.000000 925.000000
720.000000 831.000000 1087.000000
948.000000 833.000000 876.000000
867.000000 1910.000000 969.000000
801.000000 15.000000 1046.000000
1066.000000 1202.000000 1199.000000
1039.000000 1628.000000 1141.000000
1052.000000 1935.000000 1110.000000
923.000000 1668.000000 915.000000
1277.000000 1813.000000 1068.000000
1205.000000 1407.000000 988.000000
971.000000 982.000000 1209.000000
1081.000000 1086.000000 896.000000
706.000000 1539.000000 988.000000
1091.000000 1763.000000 785.000000
1081.000000 1612.000000 944.000000
743.000000 962.000000 770.000000
789.000000 1235.000000 1070.000000
1031.000000 943.000000 967.000000
836.000000 750.000000 1172.000000
747.000000 991.000000 1108.000000
1101.000000 875.000000 1168.000000
785.000000 825.000000 890.000000
950.000000 1829.000000 843.000000
851.000000 546.000000 1025.000000
1068.000000 1216.000000 1039.000000
768.000000 235.000000 1203.000000
830.000000 312.000000 996.000000
814.000000 1864.000000 1099.000000
845.000000 1297.000000 899.000000
890.000000 1771.000000 1014.000000
909.000000 109.000000 1023.000000
1054.000000 1361.000000 1033.000000
882.000000 759.000000 981.000000
971.000000 1446.000000 1168.000000
807.000000 1587.000000 899.000000
979.000000 964.000000 834.000000
1147.000000 1856.000000 1041.000000
952.000000 1541.000000 867.000000
830.000000 1401.000000 1079.000000
948.000000 868.000000 1284.000000
629.000000 926.000000 1043.000000
766.000000 1063.000000 865.000000
963.000000 1895.000000 1205.000000
1139.000000 1529.000000 1041.000000
950.000000 1991.000000 1039.000000
928.000000 1655.000000 1070.000000
861.000000 1177.000000 845.000000
1064.000000 1073.000000 1226.000000
683.000000 1088.000000 969.000000
1050.000000 1330.000000 1174.000000
1091.000000 1707.000000 1050.000000
990.000000 1819.000000 1103.000000
716.000000 821.000000 1217.000000
729.000000 678.000000 1170.000000
857.000000 123.000000 1201.000000
956.000000 1355.000000 923.000000
727.000000 498.000000 1190.000000
795.000000 1608.000000 1046.000000
946.000000 1194.000000 1159.000000
1323.000000 1721.000000 996.000000
961.000000 1109.000000 872.000000
704.000000 599.000000 1263.000000
768.000000 1105.000000 1066.000000
671.000000 1231.000000 1039.000000
1039.000000 840.000000 797.000000
1014.000000 1423.000000 803.000000
1077.000000 1852.000000 1193.000000
992.000000 1715.000000 830.000000
1093.000000 941.000000 1070.000000
1046.000000 829.000000 994.000000
853.000000 1001.000000 1207.000000
880.000000 643.000000 963.000000
584.000000 1026.000000 1089.000000
795.000000 446.000000 1000.000000
905.000000 844.000000 1178.000000
789.000000 738.000000 1066.000000
764.000000 848.000000 778.000000
1132.000000 984.000000 923.000000
756.000000 1291.000000 973.000000
809.000000 527.000000 919.000000
894.000000 947.000000 758.000000
1126.000000 1556.000000 1151.000000
830.000000 322.000000 1168.000000
1112.000000 987.000000 1172.000000
723.000000 858.000000 977.000000
743.000000 1434.000000 965.000000
778.000000 1498.000000 1062.000000
977.000000 1897.000000 985.000000
1240.000000 1537.000000 1083.000000
963.000000 1088.000000 1182.000000
781.000000 713.000000 1259.000000
1046.000000 906.000000 1257.000000
1290.000000 1846.000000 1178.000000
888.000000 113.000000 917.000000
1035.000000 1709.000000 928.000000
1103.000000 1127.000000 992.000000
867.000000 837.000000 807.000000
1364.000000 1761.000000 1099.000000
841.000000 1960.000000 1058.000000
807.000000 635.000000 1060.000000
828.000000 477.000000 1207.000000
975.000000 1546.000000 1137.000000
861.000000 1889.000000 1188.000000
992.000000 895.000000 1155.000000
743.000000 910.000000 1172.000000
770.000000 924.000000 863.000000
1041.000000 871.000000 894.000000
861.000000 811.000000 1066.000000
1226.000000 1744.000000 1014.000000
851.000000 187.000000 994.000000
1213.000000 1875.000000 1118.000000
1110.000000 1446.000000 992.000000
923.000000 1769.000000 919.000000
861.000000 30.000000 967.000000
1056.000000 823.000000 1095.000000
1062.000000 1146.000000 1116.000000
1017.000000 1285.000000 979.000000
766.000000 119.000000 1161.000000
932.000000 1448.000000 896.000000
948.000000 833.000000 975.000000
996.000000 1728.000000 1066.000000
826.000000 1680.000000 921.000000
880.000000 396.000000 1006.000000
1130.000000 1645.000000 1114.000000
727.000000 1622.000000 944.000000
867.000000 1239.000000 1126.000000
836.000000 1693.000000 1027.000000
1081.000000 1798.000000 1079.000000
685.000000 1042.000000 1056.000000
754.000000 769.000000 961.000000
816.000000 802.000000 1253.000000
830.000000 1771.000000 1089.000000
1064.000000 999.000000 859.000000
770.000000 531.000000 1269.000000
971.000000 1972.000000 1141.000000
901.000000 334.000000 938.000000
1048.000000 1169.000000 928.000000
772.000000 581.000000 988.000000
791.000000 1042.000000 776.000000
894.000000 20.000000 1054.000000
1039.000000 1289.000000 1091.000000
1000.000000 1618.000000 899.000000
1097.000000 1521.000000 938.000000
1077.000000 1020.000000 988.000000
1046.000000 1875.000000 1041.000000
636.000000 862.000000 1108.000000
797.000000 1367.000000 934.000000
1124.000000 1620.000000 1025.000000
892.000000 510.000000 952.000000
824.000000 724.000000 921.000000
901.000000 931.000000 1238.000000
797.000000 1322.000000 1048.000000
731.000000 765.000000 1147.000000
996.000000 1372.000000 1116.000000
890.000000 1446.000000 1128.000000
1052.000000 1504.000000 1157.000000
814.000000 191.000000 1137.000000
778.000000 1512.000000 938.000000
797.000000 1125.000000 809.000000
940.000000 889.000000 807.000000
925.000000 1858.000000 925.000000
1126.000000 1891.000000 1130.000000
1193.000000 1790.000000 1083.000000
1046.000000 995.000000 1263.000000
824.000000 1811.000000 1170.000000
731.000000 587.000000 1180.000000
870.000000 813.000000 911.000000
720.000000 1293.000000 1077.000000
867.000000 1523.000000 888.000000
812.000000 924.000000 733.000000
706.000000 1169.000000 990.000000
652.000000 1049.000000 1137.000000
696.000000 922.000000 1099.000000
1021.000000 1502.000000 836.000000
861.000000 695.000000 1033.000000
1041.000000 1929.000000 1195.000000
772.000000 430.000000 1164.000000
807.000000 1165.000000 1114.000000
859.000000 1850.000000 1029.000000
805.000000 1038.000000 1147.000000
1037.000000 1784.000000 845.000000
1164.000000 862.000000 834.000000
878.000000 1374.000000 901.000000
938.000000 1825.000000 1168.000000
816.000000 380.000000 950.000000
1201.000000 1490.000000 1002.000000
851.000000 243.000000 1190.000000
1087.000000 1367.000000 1110.000000
1012.000000 1245.000000 1155.000000
805.000000 1231.000000 872.000000
1025.000000 1380.000000 959.000000
816.000000 608.000000 925.000000
892.000000 260.000000 988.000000
1122.000000 929.000000 1228.000000
899.000000 1239.000000 882.000000
778.000000 632.000000 1267.000000
665.000000 987.000000 1000.000000
716.000000 1452.000000 1039.000000
944.000000 1036.000000 841.000000
727.000000 1645.000000 1021.000000
1043.000000 1411.000000 1168.000000
623.000000 960.000000 1116.000000
1027.000000 1543.000000 907.000000
973.000000 1637.000000 826.000000
710.000000 1173.000000 1077.000000
886.000000 1601.000000 894.000000
685.000000 734.000000 1205.000000
1091.000000 1063.000000 1151.000000
950.000000 138.000000 959.000000
1135.000000 1701.000000 764.000000
894.000000 1724.000000 1087.000000
1025.000000 1134.000000 1195.000000
1039.000000 916.000000 820.000000
1118.000000 1020.000000 1246.000000
878.000000 850.000000 1253.000000
795.000000 995.000000 838.000000
853.000000 1314.000000 1103.000000
1083.000000 1742.000000 981.000000
712.000000 1038.000000 917.000000
1176.000000 1581.000000 1085.000000
826.000000 1933.000000 1132.000000
1012.000000 1945.000000 1043.000000
1087.000000 1430.000000 1064.000000
870.000000 1603.000000 1070.000000
1389.000000 1750.000000 1023.000000
733.000000 771.000000 1275.000000
729.000000 1113.000000 913.000000
1017.000000 1059.000000 861.000000
789.000000 970.000000 1178.000000
838.000000 78.000000 1021.000000
867.000000 471.000000 1012.000000
791.000000 531.000000 1166.000000
1246.000000 1707.000000 1077.000000
1052.000000 1860.000000 1122.000000
681.000000 661.000000 1226.000000
1095.000000 924.000000 896.000000
915.000000 848.000000 749.000000
795.000000 165.000000 1213.000000
874.000000 1726.000000 956.000000
737.000000 782.000000 1033.000000
888.000000 858.000000 1012.000000
1128.000000 1055.000000 946.000000
1244.000000 1806.000000 1135.000000
685.000000 877.000000 1039.000000
772.000000 322.000000 1215.000000
1054.000000 897.000000 1023.000000
696.000000 856.000000 1153.000000
739.000000 1363.000000 985.000000
752.000000 461.000000 1250.000000
890.000000 144.000000 1112.000000
905.000000 1121.000000 826.000000
1157.000000 1456.000000 1050.000000
830.000000 392.000000 1190.000000
743.000000 900.000000 731.000000
975.000000 1614.000000 1108.000000
994.000000 1763.000000 901.000000
896.000000 1057.000000 1186.000000
789.000000 808.000000 1085.000000
1093.000000 854.000000 845.000000
932.000000 1175.000000 874.000000
909.000000 1943.000000 1201.000000
994.000000 1417.000000 872.000000
1139.000000 1498.000000 1106.000000
739.000000 877.000000 909.000000
801.000000 262.000000 1141.000000
928.000000 1386.000000 1139.000000
809.000000 456.000000 930.000000
834.000000 987.000000 760.000000
948.000000 1761.000000 1116.000000
766.000000 1394.000000 1048.000000
977.000000 918.000000 1240.000000
1093.000000 1670.000000 985.000000
1306.000000 1748.000000 1060.000000
1079.000000 1268.000000 1153.000000
882.000000 1171.000000 1139.000000
809.000000 71.000000 1190.000000
867.000000 616.000000 1027.000000
1041.000000 1682.000000 1095.000000
783.000000 1142.000000 876.000000
872.000000 798.000000 1135.000000
923.000000 194.000000 992.000000
1166.000000 1840.000000 1161.000000
836.000000 1479.000000 1097.000000
925.000000 1945.000000 992.000000
1141.000000 1568.000000 981.000000
938.000000 1287.000000 915.000000
700.000000 1309.000000 1012.000000
781.000000 512.000000 981.000000
1120.000000 873.000000 781.000000
899.000000 1993.000000 1087.000000
1054.000000 1216.000000 1108.000000
1064.000000 1121.000000 1050.000000
1106.000000 1001.000000 1103.000000
975.000000 1815.000000 946.000000
720.000000 664.000000 1286.000000
749.000000 1556.000000 1039.000000
675.000000 1121.000000 1029.000000
1046.000000 1223.000000 973.000000
739.000000 987.000000 880.000000
1054.000000 1695.000000 809.000000
785.000000 655.000000 1203.000000
1000.000000 1792.000000 1041.000000
822.000000 1550.000000 1074.000000
766.000000 850.000000 1253.000000
872.000000 577.000000 948.000000
853.000000 285.000000 938.000000
739.000000 1214.000000 1029.000000
1006.000000 1042.000000 1209.000000
1122.000000 1765.000000 1033.000000
1006.000000 833.000000 938.000000
843.000000 11.000000 1099.000000
1157.000000 943.000000 874.000000
913.000000 73.000000 965.000000
1012.000000 1858.000000 1176.000000
694.000000 926.000000 994.000000
919.000000 1001.000000 789.000000
851.000000 123.000000 973.000000
764.000000 682.000000 1039.000000
1027.000000 1123.000000 882.000000
778.000000 912.000000 797.000000
867.000000 274.000000 1132.000000
878.000000 183.000000 1178.000000
899.000000 1827.000000 979.000000
1079.000000 885.000000 1106.000000
569.000000 1001.000000 1149.000000
1101.000000 1616.000000 1166.000000
673.000000 980.000000 1077.000000
925.000000 1502.000000 1132.000000
791.000000 856.000000 718.000000
731.000000 1229.000000 965.000000
1041.000000 879.000000 1197.000000
975.000000 833.000000 816.000000
861.000000 802.000000 1205.000000
977.000000 1699.000000 894.000000
948.000000 86.000000 911.000000
1056.000000 968.000000 1023.000000
805.000000 833.000000 828.000000
778.000000 721.000000 1159.000000
1304.000000 1779.000000 1118.000000
785.000000 1276.000000 915.000000
733.000000 1558.000000 930.000000
950.000000 1254.000000 1135.000000
1010.000000 1179.000000 1151.000000
714.000000 539.000000 1238.000000
1114.000000 1032.000000 884.000000
1110.000000 933.000000 1137.000000
1058.000000 1568.000000 1159.000000
588.000000 904.000000 1116.000000
776.000000 1169.000000 1058.000000
1433.000000 1782.000000 1197.000000
932.000000 158.000000 901.000000
940.000000 895.000000 1193.000000
923.000000 1579.000000 1097.000000
872.000000 173.000000 936.000000
942.000000 864.000000 1130.000000
1230.000000 1827.000000 1193.000000
629.000000 1067.000000 1072.000000
803.000000 1094.000000 1118.000000
1000.000000 1574.000000 843.000000
1132.000000 1881.000000 1203.000000
747.000000 1044.000000 1074.000000
1099.000000 1883.000000 1074.000000
915.000000 1123.000000 1161.000000
944.000000 1606.000000 872.000000
1143.000000 1506.000000 977.000000
847.000000 755.000000 1043.000000
880.000000 1829.000000 1190.000000
901.000000 442.000000 969.000000
1081.000000 1411.000000 950.000000
1238.000000 1599.000000 1081.000000
778.000000 1641.000000 915.000000
838.000000 1908.000000 1025.000000
990.000000 835.000000 1021.000000
1161.000000 1840.000000 1099.000000
814.000000 1717.000000 969.000000
838.000000 1736.000000 1139.000000
870.000000 703.000000 956.000000
758.000000 1274.000000 1033.000000
876.000000 1372.000000 1110.000000
826.000000 131.000000 1149.000000
822.000000 533.000000 1232.000000
1006.000000 852.000000 1114.000000
915.000000 1005.000000 1215.000000
1197.000000 1823.000000 1031.000000
1041.000000 1270.000000 1033.000000
774.000000 370.000000 1178.000000
1029.000000 881.000000 967.000000
988.000000 1312.000000 1116.000000
778.000000 1676.000000 1031.000000
723.000000 1492.000000 954.000000
714.000000 1233.000000 1083.000000
990.000000 1171.000000 892.000000
975.000000 1483.000000 870.000000
1337.000000 1852.000000 1215.000000
886.000000 336.000000 996.000000
1062.000000 1071.000000 1017.000000
1060.000000 1415.000000 1006.000000
749.000000 730.000000 1006.000000
1186.000000 1506.000000 1070.000000
803.000000 579.000000 1039.000000
824.000000 951.000000 1224.000000
824.000000 842.000000 766.000000
1079.000000 974.000000 950.000000
890.000000 817.000000 967.000000
1035.000000 1649.000000 936.000000
745.000000 823.000000 934.000000
820.000000 392.000000 1008.000000
830.000000 666.000000 932.000000
799.000000 767.000000 1128.000000
857.000000 485.000000 911.000000
787.000000 1442.000000 1079.000000
1099.000000 1485.000000 1046.000000
1021.000000 833.000000 853.000000
983.000000 1672.000000 1083.000000
892.000000 1976.000000 1031.000000
1052.000000 1750.000000 1060.000000
818.000000 782.000000 913.000000
820.000000 748.000000 1230.000000
803.000000 1183.000000 838.000000
1064.000000 1821.000000 1027.000000
731.000000 1138.000000 1033.000000
988.000000 1978.000000 1085.000000
1072.000000 1024.000000 1195.000000
907.000000 829.000000 1099.000000
1085.000000 1924.000000 1157.000000
857.000000 227.000000 952.000000
892.000000 829.000000 859.000000
1062.000000 1498.000000 894.000000
809.000000 276.000000 1213.000000
882.000000 895.000000 735.000000
1081.000000 1668.000000 1135.000000
1184.000000 1895.000000 1164.000000
1010.000000 1755.000000 956.000000
1077.000000 1179.000000 994.000000
851.000000 1105.000000 812.000000
710.000000 1597.000000 994.000000
789.000000 1454.000000 936.000000
1070.000000 949.000000 1288.000000
1087.000000 1127.000000 936.000000
936.000000 947.000000 799.000000
851.000000 5.000000 1019.000000
685.000000 1030.000000 967.000000
872.000000 1659.000000 1056.000000
863.000000 372.000000 917.000000
1153.000000 970.000000 1253.000000
983.000000 1405.000000 928.000000
816.000000 494.000000 1023.000000
919.000000 1912.000000 946.000000
1054.000000 852.000000 1145.000000
1014.000000 1854.000000 994.000000
1240.000000 1763.000000 1066.000000
985.000000 1945.000000 1190.000000
996.000000 1496.000000 1159.000000
1021.000000 953.000000 1234.000000
816.000000 1500.000000 896.000000
772.000000 632.000000 1014.000000
752.000000 67.000000 1180.000000
971.000000 1144.000000 1172.000000
1108.000000 1496.000000 1153.000000
1035.000000 1394.000000 903.000000
631.000000 868.000000 1052.000000
768.000000 189.000000 1170.000000
1116.000000 978.000000 857.000000
662.000000 1175.000000 1048.000000
903.000000 388.000000 954.000000
710.000000 1407.000000 1004.000000
745.000000 1341.000000 1056.000000
809.000000 113.000000 1228.000000
998.000000 1330.000000 950.000000
1064.000000 1113.000000 1161.000000
1116.000000 1390.000000 988.000000
723.000000 837.000000 1031.000000
720.000000 1084.000000 1041.000000
919.000000 1502.000000 892.000000
797.000000 579.000000 1261.000000
919.000000 1815.000000 888.000000
967.000000 1777.000000 853.000000
1130.000000 893.000000 865.000000
915.000000 1873.000000 1188.000000
725.000000 1506.000000 1031.000000
768.000000 895.000000 1219.000000
826.000000 1266.000000 1097.000000
1132.000000 1670.000000 1048.000000
1228.000000 1835.000000 1083.000000
1348.000000 1715.000000 1046.000000
1043.000000 1345.000000 1085.000000
896.000000 1322.000000 905.000000
855.000000 1798.000000 1048.000000
803.000000 440.000000 1240.000000
816.000000 690.000000 1066.000000
691.000000 777.000000 1240.000000
681.000000 1078.000000 1099.000000
1083.000000 1469.000000 950.000000
1012.000000 1007.000000 843.000000
1079.000000 1007.000000 1054.000000
1166.000000 1616.000000 990.000000
857.000000 1943.000000 1178.000000
733.000000 817.000000 1164.000000
923.000000 829.000000 925.000000
774.000000 721.000000 944.000000
994.000000 885.000000 818.000000
822.000000 1879.000000 1151.000000
1072.000000 1316.000000 1126.000000
841.000000 1630.000000 905.000000
890.000000 160.000000 1021.000000
1046.000000 918.000000 921.000000
928.000000 1715.000000 942.000000
1077.000000 1171.000000 1068.000000
733.000000 717.000000 1284.000000
789.000000 873.000000 861.000000
905.000000 268.000000 936.000000
1056.000000 848.000000 1046.000000
712.000000 1256.000000 1008.000000
809.000000 1813.000000 1118.000000
1046.000000 1258.000000 1195.000000
824.000000 1914.000000 1081.000000
718.000000 908.000000 948.000000
598.000000 1047.000000 1137.000000
735.000000 943.000000 1130.000000
1089.000000 1098.000000 1110.000000
946.000000 1711.000000 1093.000000
841.000000 1053.000000 1184.000000
983.000000 1270.000000 940.000000
720.000000 1668.000000 973.000000
836.000000 821.000000 870.000000
1168.000000 1448.000000 998.000000
745.000000 425.000000 1211.000000
882.000000 73.000000 1052.000000
880.000000 1465.000000 888.000000
1033.000000 1336.000000 990.000000
733.000000 931.000000 901.000000
851.000000 1976.000000 1108.000000
820.000000 347.000000 1217.000000
899.000000 38.000000 1004.000000
642.000000 914.000000 1097.000000
776.000000 1076.000000 814.000000
776.000000 624.000000 956.000000
921.000000 840.000000 814.000000
797.000000 477.000000 1164.000000
925.000000 868.000000 1236.000000
795.000000 707.000000 1207.000000
878.000000 1724.000000 1035.000000
1406.000000 1736.000000 1079.000000
952.000000 1040.000000 1201.000000
934.000000 837.000000 1027.000000
1178.000000 1564.000000 1035.000000
928.000000 1396.000000 903.000000
863.000000 761.000000 932.000000
712.000000 1156.000000 938.000000
843.000000 773.000000 1099.000000
1072.000000 1187.000000 1149.000000
1072.000000 949.000000 845.000000
1021.000000 1757.000000 1008.000000
874.000000 800.000000 1014.000000
623.000000 995.000000 1072.000000
838.000000 260.000000 988.000000
847.000000 227.000000 1118.000000
1108.000000 1073.000000 992.000000
1012.000000 1583.000000 1135.000000
909.000000 1554.000000 894.000000
1017.000000 1947.000000 1147.000000
1037.000000 1591.000000 925.000000
971.000000 1819.000000 890.000000
698.000000 614.000000 1211.000000
1081.000000 1376.000000 1161.000000
816.000000 36.000000 996.000000
1000.000000 887.000000 1275.000000
1070.000000 1456.000000 1166.000000
824.000000 1214.000000 1110.000000
733.000000 808.000000 988.000000
928.000000 1980.000000 1170.000000
836.000000 196.000000 1207.000000
1074.000000 881.000000 805.000000
863.000000 78.000000 948.000000
669.000000 1057.000000 1008.000000
729.000000 868.000000 1199.000000
973.000000 1951.000000 1010.000000
1141.000000 1595.000000 1120.000000
783.000000 993.000000 760.000000
797.000000 490.000000 1250.000000
834.000000 332.000000 946.000000
959.000000 1655.000000 874.000000
778.000000 1686.000000 940.000000
911.000000 1759.000000 969.000000
783.000000 765.000000 1265.000000
1019.000000 1212.000000 930.000000
706.000000 779.000000 1190.000000
882.000000 577.000000 998.000000
841.000000 44.000000 1060.000000
832.000000 1394.000000 909.000000
1041.000000 1744.000000 814.000000
1023.000000 1467.000000 874.000000
1017.000000 1450.000000 1147.000000
859.000000 535.000000 921.000000
749.000000 577.000000 1277.000000
785.000000 962.000000 801.000000
1039.000000 1825.000000 1087.000000
1000.000000 1815.000000 830.000000
776.000000 610.000000 1180.000000
679.000000 1281.000000 1050.000000
876.000000 1684.000000 928.000000
785.000000 299.000000 1172.000000
1116.000000 1852.000000 1161.000000
1017.000000 1297.000000 1155.000000
1079.000000 904.000000 1219.000000
1072.000000 1152.000000 1193.000000
1226.000000 1688.000000 1035.000000
975.000000 1848.000000 1143.000000
826.000000 1351.000000 1077.000000
578.000000 978.000000 1103.000000
791.000000 568.000000 942.000000
1135.000000 1614.000000 1074.000000
749.000000 800.000000 1116.000000
1012.000000 835.000000 1066.000000
1099.000000 1676.000000 1089.000000
992.000000 885.000000 1205.000000
981.000000 1531.000000 826.000000
716.000000 1005.000000 1070.000000
1290.000000 1825.000000 1132.000000
1027.000000 1728.000000 863.000000
708.000000 1461.000000 990.000000
696.000000 1125.000000 1074.000000
855.000000 1223.000000 865.000000
828.000000 850.000000 1259.000000
783.000000 1320.000000 942.000000
656.000000 1026.000000 1093.000000
1122.000000 1454.000000 1091.000000
921.000000 906.000000 764.000000
950.000000 1740.000000 888.000000
774.000000 1394.000000 969.000000
675.000000 850.000000 1079.000000
1060.000000 1390.000000 1074.000000
983.000000 1597.000000 799.000000
826.000000 1647.000000 1043.000000
882.000000 517.000000 1000.000000
888.000000 1285.000000 1122.000000
1064.000000 1047.000000 870.000000
629.000000 1005.000000 1135.000000
836.000000 1345.000000 909.000000
1161.000000 912.000000 832.000000
832.000000 1063.000000 793.000000
1149.000000 1546.000000 1108.000000
865.000000 897.000000 1248.000000
1101.000000 1568.000000 952.000000
861.000000 121.000000 1027.000000
756.000000 1237.000000 921.000000
1025.000000 997.000000 1213.000000
1072.000000 1036.000000 1257.000000
1112.000000 1711.000000 1006.000000
911.000000 1223.000000 1141.000000
944.000000 1995.000000 1106.000000
762.000000 1595.000000 917.000000
981.000000 1775.000000 1083.000000
1116.000000 1620.000000 977.000000
923.000000 1076.000000 822.000000
874.000000 1013.000000 774.000000
1014.000000 1904.000000 1017.000000
743.000000 541.000000 1170.000000
1025.000000 1367.000000 1155.000000
1261.000000 1858.000000 1215.000000
886.000000 1868.000000 952.000000
689.000000 1328.000000 1064.000000
867.000000 1943.000000 1006.000000
1207.000000 1438.000000 1025.000000
1093.000000 995.000000 1279.000000
973.000000 1403.000000 1145.000000
1046.000000 1918.000000 1064.000000
673.000000 668.000000 1273.000000
801.000000 67.000000 1240.000000
905.000000 1811.000000 934.000000
1027.000000 962.000000 832.000000
793.000000 1102.000000 851.000000
673.000000 1206.000000 1083.000000
963.000000 1862.000000 954.000000
884.000000 659.000000 1008.000000
1000.000000 1529.000000 870.000000
1041.000000 1316.000000 1046.000000
851.000000 1568.000000 888.000000
710.000000 900.000000 1139.000000
785.000000 1189.000000 884.000000
781.000000 1051.000000 1108.000000
1141.000000 968.000000 1207.000000
1242.000000 1659.000000 1083.000000
1023.000000 1086.000000 1203.000000
1176.000000 1533.000000 998.000000
1203.000000 1829.000000 1128.000000
994.000000 833.000000 892.000000
743.000000 1603.000000 1037.000000
725.000000 871.000000 764.000000
818.000000 438.000000 1182.000000
884.000000 1483.000000 1099.000000
826.000000 1825.000000 1074.000000
1275.000000 1734.000000 1027.000000
718.000000 726.000000 1172.000000
1106.000000 922.000000 1184.000000
766.000000 94.000000 1217.000000
1132.000000 1577.000000 1043.000000
795.000000 537.000000 1019.000000
867.000000 846.000000 747.000000
1046.000000 1026.000000 1023.000000
1077.000000 1779.000000 1010.000000
994.000000 1572.000000 890.000000
1054.000000 1247.000000 1072.000000
928.000000 1461.000000 1155.000000
1112.000000 1011.000000 956.000000
1072.000000 1701.000000 956.000000
863.000000 185.000000 1132.000000
934.000000 1779.000000 1159.000000
654.000000 1011.000000 1039.000000
1010.000000 1895.000000 1205.000000
1395.000000 1707.000000 1041.000000
795.000000 1541.000000 905.000000
665.000000 705.000000 1236.000000
888.000000 1419.000000 892.000000
1021.000000 1537.000000 1145.000000
778.000000 999.000000 1143.000000
1217.000000 1862.000000 1164.000000
1106.000000 1409.000000 1103.000000
1137.000000 1485.000000 1019.000000
737.000000 635.000000 1186.000000
942.000000 949.000000 1224.000000
