ply
format ascii 1.0
element vertex 690
property float x
property float y
property float z
end_header
1006.000000 984.000000 898.000000
1000.000000 2000.000000 991.000000
1102.000000 7.000000 1096.000000
334.000000 1087.000000 1166.000000
1668.000000 1082.000000 1151.000000
702.000000 1491.000000 940.000000
1302.000000 1494.000000 936.000000
865.000000 455.000000 888.000000
1004.000000 1314.000000 1091.000000
1147.000000 661.000000 985.000000
1001.000000 1669.000000 852.000000
1149.000000 275.000000 899.000000
882.000000 111.000000 899.000000
513.000000 1261.000000 994.000000
1493.000000 1267.000000 990.000000
859.000000 739.000000 982.000000
989.000000 1401.000000 837.000000
1045.000000 1574.000000 1095.000000
1168.000000 1184.000000 936.000000
844.000000 1184.000000 933.000000
955.000000 1782.000000 1051.000000
1082.000000 483.000000 875.000000
1156.000000 876.000000 1011.000000
1091.000000 57.000000 886.000000
892.000000 16.000000 1087.000000
866.000000 1471.000000 1068.000000
1024.000000 1107.000000 1065.000000
833.000000 1645.000000 964.000000
1172.000000 1646.000000 954.000000
822.000000 933.000000 953.000000
930.000000 288.000000 967.000000
1160.000000 1372.000000 989.000000
966.000000 580.000000 991.000000
1061.000000 1842.000000 904.000000
1026.000000 785.000000 915.000000
1007.000000 1162.000000 846.000000
853.000000 1358.000000 937.000000
1176.000000 1014.000000 906.000000
1125.000000 1500.000000 875.000000
872.000000 1510.000000 877.000000
649.000000 1350.000000 1002.000000
1570.000000 1209.000000 1121.000000
1369.000000 1369.000000 1014.000000
445.000000 1197.000000 1126.000000
959.000000 886.000000 1017.000000
878.000000 1061.000000 1025.000000
870.000000 1049.000000 859.000000
1081.000000 170.000000 991.000000
919.000000 1882.000000 941.000000
1119.000000 392.000000 990.000000
1084.000000 1290.000000 871.000000
1164.000000 1516.000000 1027.000000
1066.000000 1881.000000 1052.000000
872.000000 1257.000000 1059.000000
895.000000 835.000000 875.000000
1037.000000 1678.000000 994.000000
1113.000000 890.000000 872.000000
1119.000000 1237.000000 1058.000000
1098.000000 531.000000 1010.000000
925.000000 1276.000000 849.000000
1074.000000 1435.000000 1096.000000
1117.000000 1008.000000 1032.000000
855.000000 617.000000 916.000000
1062.000000 618.000000 887.000000
924.000000 1590.000000 1043.000000
1158.000000 776.000000 921.000000
999.000000 1538.000000 861.000000
1085.000000 767.000000 1029.000000
1084.000000 1058.000000 826.000000
946.000000 417.000000 979.000000
775.000000 1550.000000 1026.000000
964.000000 1765.000000 926.000000
938.000000 27.000000 972.000000
931.000000 711.000000 885.000000
946.000000 1911.000000 1059.000000
918.000000 349.000000 864.000000
1069.000000 364.000000 884.000000
995.000000 1001.000000 1017.000000
1004.000000 1945.000000 883.000000
970.000000 699.000000 996.000000
1139.000000 12.000000 984.000000
1134.000000 1124.000000 1030.000000
939.000000 544.000000 885.000000
900.000000 1364.000000 1093.000000
1099.000000 1612.000000 872.000000
928.000000 174.000000 983.000000
973.000000 1487.000000 1102.000000
1155.000000 559.000000 917.000000
971.000000 1206.000000 1075.000000
904.000000 1619.000000 881.000000
908.000000 944.000000 853.000000
882.000000 508.000000 984.000000
1215.000000 1556.000000 907.000000
974.000000 1059.000000 822.000000
1062.000000 1785.000000 999.000000
778.000000 1442.000000 1002.000000
1083.000000 1937.000000 958.000000
1113.000000 1393.000000 892.000000
543.000000 1365.000000 987.000000
860.000000 845.000000 1006.000000
883.000000 248.000000 879.000000
1060.000000 918.000000 1028.000000
1090.000000 163.000000 886.000000
932.000000 1678.000000 978.000000
903.000000 1149.000000 852.000000
987.000000 881.000000 897.000000
790.000000 1559.000000 923.000000
858.000000 368.000000 947.000000
1110.000000 1339.000000 1076.000000
1023.000000 1769.000000 841.000000
1444.000000 1347.000000 947.000000
1301.000000 1446.000000 1027.000000
887.000000 958.000000 1031.000000
1110.000000 1154.000000 857.000000
679.000000 1445.000000 1028.000000
1056.000000 624.000000 1011.000000
1109.000000 1606.000000 1023.000000
1155.000000 417.000000 899.000000
1058.000000 72.000000 981.000000
1076.000000 302.000000 963.000000
890.000000 1161.000000 1035.000000
1365.000000 1417.000000 926.000000
893.000000 1412.000000 863.000000
1174.000000 1273.000000 981.000000
824.000000 1033.000000 946.000000
820.000000 1271.000000 975.000000
375.000000 1137.000000 1089.000000
940.000000 789.000000 1025.000000
630.000000 1423.000000 938.000000
1627.000000 1139.000000 1081.000000
1089.000000 714.000000 888.000000
1252.000000 1550.000000 999.000000
891.000000 643.000000 1003.000000
1524.000000 1282.000000 1080.000000
1183.000000 922.000000 930.000000
1459.000000 1339.000000 1041.000000
971.000000 629.000000 908.000000
1058.000000 458.000000 962.000000
1162.000000 1458.000000 952.000000
478.000000 1272.000000 1080.000000
1179.000000 1094.000000 955.000000
1558.000000 1212.000000 1030.000000
1031.000000 833.000000 995.000000
1040.000000 545.000000 939.000000
1588.000000 1125.000000 1163.000000
957.000000 454.000000 896.000000
854.000000 1395.000000 1020.000000
843.000000 1448.000000 937.000000
973.000000 1843.000000 880.000000
1080.000000 971.000000 848.000000
1002.000000 1840.000000 1100.000000
882.000000 96.000000 987.000000
1154.000000 481.000000 962.000000
1024.000000 1958.000000 1066.000000
413.000000 1127.000000 1171.000000
1066.000000 1685.000000 911.000000
992.000000 1401.000000 1101.000000
1129.000000 110.000000 945.000000
1049.000000 1465.000000 848.000000
1010.000000 1250.000000 846.000000
713.000000 1401.000000 960.000000
1150.000000 1432.000000 1052.000000
920.000000 6.000000 889.000000
438.000000 1206.000000 1040.000000
591.000000 1294.000000 972.000000
856.000000 1261.000000 897.000000
1069.000000 246.000000 898.000000
862.000000 14.000000 1007.000000
556.000000 1309.000000 1049.000000
943.000000 1963.000000 940.000000
841.000000 806.000000 933.000000
1030.000000 682.000000 939.000000
1053.000000 1187.000000 1076.000000
1008.000000 930.000000 963.000000
841.000000 1601.000000 1035.000000
963.000000 499.000000 966.000000
1100.000000 1513.000000 1081.000000
836.000000 1111.000000 972.000000
927.000000 181.000000 900.000000
999.000000 1625.000000 1047.000000
944.000000 1477.000000 851.000000
1126.000000 235.000000 967.000000
857.000000 534.000000 909.000000
1148.000000 1083.000000 872.000000
1179.000000 984.000000 983.000000
1134.000000 1322.000000 927.000000
842.000000 978.000000 888.000000
1095.000000 811.000000 880.000000
944.000000 1102.000000 1052.000000
1239.000000 1461.000000 977.000000
1190.000000 1599.000000 1017.000000
1155.000000 796.000000 999.000000
962.000000 354.000000 931.000000
1137.000000 638.000000 909.000000
928.000000 1847.000000 1013.000000
830.000000 1503.000000 993.000000
1030.000000 1762.000000 1068.000000
1069.000000 5.000000 1022.000000
1132.000000 1227.000000 880.000000
859.000000 697.000000 915.000000
947.000000 104.000000 943.000000
848.000000 897.000000 888.000000
1020.000000 1329.000000 847.000000
953.000000 283.000000 892.000000
1294.000000 1408.000000 958.000000
1152.000000 346.000000 932.000000
1082.000000 1860.000000 977.000000
944.000000 1720.000000 865.000000
954.000000 785.000000 885.000000
848.000000 1114.000000 896.000000
882.000000 229.000000 955.000000
882.000000 1336.000000 869.000000
1091.000000 691.000000 1027.000000
951.000000 1207.000000 871.000000
1030.000000 746.000000 980.000000
1173.000000 847.000000 943.000000
931.000000 1294.000000 1090.000000
919.000000 1435.000000 1112.000000
912.000000 1530.000000 1087.000000
777.000000 1486.000000 935.000000
1407.000000 1306.000000 998.000000
855.000000 1320.000000 1022.000000
1037.000000 1751.000000 937.000000
1093.000000 844.000000 1035.000000
982.000000 1726.000000 1009.000000
1072.000000 1546.000000 849.000000
715.000000 1508.000000 1011.000000
1052.000000 1041.000000 1045.000000
874.000000 434.000000 977.000000
1154.000000 1193.000000 1008.000000
859.000000 295.000000 931.000000
1053.000000 1261.000000 1078.000000
1235.000000 1607.000000 957.000000
1101.000000 1654.000000 969.000000
1132.000000 590.000000 981.000000
882.000000 765.000000 889.000000
1147.000000 954.000000 874.000000
927.000000 1554.000000 859.000000
861.000000 1215.000000 996.000000
1062.000000 1206.000000 871.000000
962.000000 990.000000 840.000000
875.000000 579.000000 974.000000
1096.000000 554.000000 876.000000
1417.000000 1407.000000 976.000000
1028.000000 1603.000000 843.000000
1096.000000 302.000000 859.000000
599.000000 1358.000000 941.000000
1151.000000 492.000000 891.000000
1153.000000 705.000000 927.000000
1046.000000 918.000000 881.000000
1060.000000 386.000000 951.000000
1350.000000 1463.000000 978.000000
778.000000 1603.000000 979.000000
1166.000000 1606.000000 896.000000
976.000000 1560.000000 1080.000000
949.000000 1342.000000 843.000000
1037.000000 1985.000000 933.000000
944.000000 10.000000 1040.000000
1128.000000 937.000000 1032.000000
839.000000 1606.000000 905.000000
930.000000 1016.000000 1039.000000
993.000000 1797.000000 994.000000
944.000000 1961.000000 1010.000000
1028.000000 1016.000000 836.000000
1194.000000 1519.000000 963.000000
1061.000000 109.000000 922.000000
1064.000000 1911.000000 895.000000
916.000000 354.000000 984.000000
1056.000000 1391.000000 853.000000
906.000000 708.000000 1022.000000
1156.000000 1061.000000 1011.000000
1144.000000 728.000000 1003.000000
734.000000 1552.000000 962.000000
1375.000000 1352.000000 948.000000
848.000000 1535.000000 1052.000000
1029.000000 1099.000000 827.000000
623.000000 1413.000000 1005.000000
1050.000000 1366.000000 1093.000000
838.000000 987.000000 994.000000
985.000000 730.000000 923.000000
1133.000000 1019.000000 854.000000
1147.000000 1297.000000 1038.000000
912.000000 606.000000 882.000000
1034.000000 614.000000 948.000000
1122.000000 74.000000 1003.000000
887.000000 53.000000 936.000000
927.000000 1674.000000 911.000000
877.000000 162.000000 941.000000
937.000000 1819.000000 953.000000
889.000000 1636.000000 1006.000000
869.000000 388.000000 885.000000
1039.000000 1491.000000 1095.000000
915.000000 1088.000000 830.000000
953.000000 951.000000 1026.000000
1133.000000 358.000000 870.000000
1055.000000 429.000000 901.000000
1055.000000 1969.000000 1009.000000
896.000000 893.000000 1034.000000
887.000000 1204.000000 888.000000
831.000000 868.000000 951.000000
965.000000 1613.000000 857.000000
1044.000000 852.000000 884.000000
1126.000000 175.000000 941.000000
502.000000 1222.000000 1045.000000
953.000000 1905.000000 889.000000
1467.000000 1275.000000 1049.000000
1239.000000 1496.000000 921.000000
1063.000000 1816.000000 1056.000000
978.000000 640.000000 971.000000
985.000000 792.000000 978.000000
1014.000000 1799.000000 900.000000
966.000000 939.000000 878.000000
1270.000000 1551.000000 938.000000
1047.000000 1712.000000 857.000000
1002.000000 1904.000000 1090.000000
990.000000 1058.000000 1045.000000
834.000000 1512.000000 927.000000
930.000000 887.000000 867.000000
1174.000000 1245.000000 923.000000
1050.000000 1588.000000 1034.000000
975.000000 569.000000 930.000000
1134.000000 25.000000 1045.000000
1294.000000 1501.000000 998.000000
928.000000 67.000000 1019.000000
1604.000000 1197.000000 1070.000000
1060.000000 980.000000 1035.000000
926.000000 68.000000 889.000000
591.000000 1355.000000 1026.000000
655.000000 1467.000000 975.000000
1109.000000 453.000000 997.000000
1101.000000 43.000000 946.000000
768.000000 1490.000000 1040.000000
1103.000000 414.000000 865.000000
938.000000 235.000000 928.000000
1015.000000 1886.000000 866.000000
1116.000000 243.000000 858.000000
919.000000 1906.000000 998.000000
916.000000 1215.000000 1049.000000
1011.000000 841.000000 937.000000
388.000000 1173.000000 1137.000000
1107.000000 1178.000000 1046.000000
879.000000 786.000000 1016.000000
1158.000000 1139.000000 895.000000
1137.000000 297.000000 967.000000
1084.000000 1094.000000 1049.000000
1069.000000 197.000000 937.000000
1126.000000 1649.000000 913.000000
915.000000 552.000000 1011.000000
913.000000 489.000000 873.000000
925.000000 409.000000 870.000000
966.000000 1122.000000 826.000000
660.000000 1371.000000 946.000000
1615.000000 1170.000000 1132.000000
498.000000 1306.000000 1032.000000
848.000000 904.000000 999.000000
1130.000000 1560.000000 874.000000
958.000000 1350.000000 1104.000000
1527.000000 1222.000000 1080.000000
1060.000000 309.000000 906.000000
977.000000 1861.000000 1050.000000
904.000000 1004.000000 840.000000
981.000000 1148.000000 1067.000000
1542.000000 1269.000000 1025.000000
1127.000000 1557.000000 1051.000000
950.000000 1636.000000 1016.000000
1101.000000 1446.000000 869.000000
1147.000000 1402.000000 940.000000
1161.000000 1527.000000 913.000000
400.000000 1193.000000 1083.000000
854.000000 482.000000 939.000000
937.000000 126.000000 882.000000
875.000000 1650.000000 923.000000
1143.000000 843.000000 893.000000
1043.000000 679.000000 996.000000
1176.000000 1139.000000 992.000000
877.000000 1414.000000 1073.000000
1148.000000 1374.000000 1047.000000
860.000000 681.000000 971.000000
980.000000 1261.000000 1092.000000
880.000000 307.000000 877.000000
924.000000 468.000000 996.000000
899.000000 662.000000 890.000000
873.000000 1568.000000 876.000000
1188.000000 1037.000000 961.000000
1058.000000 570.000000 990.000000
844.000000 1452.000000 1017.000000
1174.000000 926.000000 988.000000
972.000000 1771.000000 869.000000
1114.000000 110.000000 889.000000
946.000000 1766.000000 981.000000
945.000000 627.000000 1017.000000
1242.000000 1497.000000 1022.000000
1153.000000 423.000000 956.000000
1083.000000 1918.000000 1012.000000
1053.000000 1646.000000 871.000000
911.000000 838.000000 1033.000000
844.000000 1160.000000 1000.000000
1084.000000 116.000000 1009.000000
348.000000 1092.000000 1111.000000
536.000000 1309.000000 974.000000
1088.000000 1347.000000 870.000000
727.000000 1419.000000 1012.000000
1352.000000 1423.000000 1018.000000
1113.000000 629.000000 1017.000000
1472.000000 1322.000000 989.000000
1146.000000 537.000000 969.000000
1058.000000 1803.000000 946.000000
843.000000 1302.000000 933.000000
992.000000 1722.000000 836.000000
435.000000 1237.000000 1087.000000
461.000000 1257.000000 1029.000000
1039.000000 731.000000 906.000000
1034.000000 1735.000000 991.000000
883.000000 1316.000000 1070.000000
1022.000000 889.000000 998.000000
736.000000 1447.000000 938.000000
1048.000000 493.000000 920.000000
1118.000000 1271.000000 912.000000
932.000000 120.000000 995.000000
1117.000000 222.000000 912.000000
1110.000000 1394.000000 1083.000000
1506.000000 1311.000000 1032.000000
846.000000 749.000000 929.000000
1163.000000 1463.000000 1008.000000
871.000000 1456.000000 889.000000
583.000000 1404.000000 968.000000
966.000000 410.000000 928.000000
977.000000 1294.000000 843.000000
863.000000 1405.000000 909.000000
1077.000000 59.000000 1031.000000
995.000000 1457.000000 843.000000
1121.000000 1462.000000 1088.000000
1059.000000 1144.000000 840.000000
853.000000 419.000000 928.000000
1454.000000 1374.000000 999.000000
855.000000 1239.000000 947.000000
866.000000 1114.000000 1019.000000
1058.000000 510.000000 978.000000
953.000000 839.000000 878.000000
1074.000000 248.000000 955.000000
1117.000000 762.000000 888.000000
947.000000 1716.000000 942.000000
1064.000000 1313.000000 1089.000000
682.000000 1438.000000 934.000000
969.000000 1960.000000 1058.000000
1006.000000 984.000000 966.000000
843.000000 1403.000000 967.000000
1653.000000 1129.000000 1129.000000
1064.000000 1632.000000 1006.000000
1271.000000 1450.000000 933.000000
1332.000000 1373.000000 975.000000
839.000000 1060.000000 902.000000
1011.000000 1820.000000 1039.000000
1021.000000 953.000000 1010.000000
964.000000 505.000000 912.000000
679.000000 1393.000000 1015.000000
353.000000 1133.000000 1145.000000
837.000000 1059.000000 991.000000
1057.000000 672.000000 894.000000
965.000000 834.000000 1008.000000
473.000000 1196.000000 1081.000000
971.000000 682.000000 904.000000
1574.000000 1244.000000 1070.000000
563.000000 1272.000000 1011.000000
1109.000000 341.000000 981.000000
1108.000000 1102.000000 842.000000
1106.000000 1287.000000 1070.000000
528.000000 1266.000000 1060.000000
1136.000000 1443.000000 909.000000
985.000000 1674.000000 1003.000000
942.000000 1424.000000 849.000000
884.000000 312.000000 974.000000
1205.000000 1549.000000 1022.000000
987.000000 1982.000000 918.000000
1153.000000 1244.000000 1019.000000
1149.000000 1628.000000 998.000000
948.000000 1662.000000 865.000000
875.000000 1008.000000 1024.000000
822.000000 982.000000 936.000000
1165.000000 1323.000000 971.000000
850.000000 847.000000 901.000000
1160.000000 893.000000 893.000000
968.000000 750.000000 1003.000000
1088.000000 1889.000000 935.000000
1322.000000 1445.000000 928.000000
1021.000000 1443.000000 1093.000000
1174.000000 1065.000000 913.000000
1165.000000 1224.000000 969.000000
1070.000000 1142.000000 1059.000000
1004.000000 1527.000000 1108.000000
1018.000000 1224.000000 1082.000000
1073.000000 1550.000000 1059.000000
902.000000 1482.000000 1103.000000
844.000000 1356.000000 988.000000
935.000000 1168.000000 1057.000000
1066.000000 770.000000 886.000000
1503.000000 1240.000000 1039.000000
891.000000 560.000000 882.000000
1003.000000 1746.000000 900.000000
1011.000000 936.000000 913.000000
1188.000000 972.000000 934.000000
1127.000000 592.000000 891.000000
893.000000 36.000000 1040.000000
1104.000000 893.000000 1038.000000
993.000000 1793.000000 1082.000000
1056.000000 1705.000000 956.000000
1164.000000 744.000000 959.000000
842.000000 1258.000000 1018.000000
863.000000 629.000000 964.000000
1566.000000 1161.000000 1134.000000
865.000000 1159.000000 883.000000
891.000000 12.000000 964.000000
867.000000 1361.000000 1054.000000
725.000000 1465.000000 1034.000000
877.000000 1575.000000 1058.000000
1090.000000 8.000000 894.000000
1046.000000 786.000000 1005.000000
1411.000000 1346.000000 1027.000000
877.000000 1107.000000 856.000000
1098.000000 581.000000 1017.000000
942.000000 153.000000 939.000000
1407.000000 1387.000000 932.000000
803.000000 1614.000000 938.000000
1446.000000 1280.000000 983.000000
950.000000 1163.000000 848.000000
1155.000000 604.000000 940.000000
1002.000000 1206.000000 867.000000
936.000000 1846.000000 912.000000
1059.000000 726.000000 1014.000000
1113.000000 1057.000000 1034.000000
836.000000 1557.000000 906.000000
1064.000000 148.000000 951.000000
1105.000000 668.000000 887.000000
968.000000 453.000000 951.000000
861.000000 342.000000 906.000000
1118.000000 139.000000 983.000000
1084.000000 1499.000000 849.000000
1056.000000 569.000000 900.000000
1162.000000 1420.000000 983.000000
1079.000000 418.000000 982.000000
941.000000 1828.000000 1056.000000
851.000000 804.000000 981.000000
910.000000 1.000000 1007.000000
1057.000000 1253.000000 856.000000
1133.000000 451.000000 873.000000
1118.000000 802.000000 1030.000000
890.000000 1247.000000 866.000000
1210.000000 1605.000000 916.000000
627.000000 1327.000000 966.000000
892.000000 212.000000 911.000000
1060.000000 1929.000000 1053.000000
1033.000000 973.000000 860.000000
1559.000000 1185.000000 1081.000000
916.000000 279.000000 862.000000
935.000000 1246.000000 1080.000000
984.000000 816.000000 906.000000
1036.000000 1511.000000 848.000000
1069.000000 118.000000 876.000000
1009.000000 889.000000 939.000000
864.000000 939.000000 870.000000
1020.000000 1839.000000 875.000000
1077.000000 1846.000000 1022.000000
985.000000 689.000000 952.000000
1090.000000 11.000000 980.000000
930.000000 1041.000000 826.000000
892.000000 142.000000 982.000000
951.000000 373.000000 888.000000
904.000000 598.000000 1011.000000
966.000000 1440.000000 1107.000000
963.000000 1246.000000 845.000000
1150.000000 1480.000000 1054.000000
911.000000 1369.000000 852.000000
530.000000 1342.000000 1026.000000
945.000000 1395.000000 1109.000000
437.000000 1165.000000 1091.000000
1071.000000 24.000000 1065.000000
866.000000 52.000000 978.000000
936.000000 1800.000000 1012.000000
1137.000000 1181.000000 888.000000
1025.000000 1860.000000 1061.000000
993.000000 858.000000 978.000000
904.000000 400.000000 991.000000
1311.000000 1407.000000 1002.000000
1058.000000 340.000000 941.000000
830.000000 936.000000 907.000000
972.000000 1587.000000 1042.000000
1272.000000 1432.000000 993.000000
741.000000 1516.000000 933.000000
937.000000 673.000000 1022.000000
989.000000 1750.000000 1049.000000
1127.000000 496.000000 998.000000
1175.000000 1138.000000 939.000000
801.000000 1471.000000 972.000000
1107.000000 934.000000 858.000000
1161.000000 457.000000 922.000000
966.000000 1809.000000 911.000000
836.000000 1138.000000 934.000000
810.000000 1512.000000 1034.000000
817.000000 1620.000000 1000.000000
956.000000 308.000000 934.000000
1149.000000 976.000000 1018.000000
1047.000000 1954.000000 898.000000
982.000000 924.000000 1002.000000
955.000000 535.000000 994.000000
921.000000 1062.000000 1042.000000
1057.000000 872.000000 1023.000000
878.000000 116.000000 945.000000
890.000000 1659.000000 966.000000
591.000000 1310.000000 1016.000000
946.000000 73.000000 977.000000
912.000000 1510.000000 853.000000
920.000000 1927.000000 957.000000
910.000000 754.000000 1027.000000
863.000000 539.000000 955.000000
1159.000000 515.000000 931.000000
1147.000000 321.000000 894.000000
1002.000000 1982.000000 1033.000000
1063.000000 524.000000 890.000000
925.000000 217.000000 968.000000
1153.000000 1338.000000 1019.000000
1179.000000 888.000000 962.000000
1093.000000 1013.000000 833.000000
1169.000000 803.000000 956.000000
1432.000000 1301.000000 1036.000000
1052.000000 1532.000000 1111.000000
902.000000 1460.000000 856.000000
957.000000 1520.000000 858.000000
1043.000000 1752.000000 878.000000
1167.000000 838.000000 987.000000
952.000000 588.000000 896.000000
1408.000000 1320.000000 955.000000
1025.000000 1151.000000 1077.000000
880.000000 1291.000000 872.000000
859.000000 252.000000 917.000000
430.000000 1157.000000 1142.000000
955.000000 328.000000 893.000000
1150.000000 1282.000000 944.000000
841.000000 1311.000000 977.000000
1201.000000 1625.000000 981.000000
959.000000 1986.000000 976.000000
1384.000000 1436.000000 967.000000
1136.000000 67.000000 960.000000
1089.000000 213.000000 979.000000
828.000000 1078.000000 943.000000
886.000000 880.000000 870.000000
1079.000000 1224.000000 1073.000000
1115.000000 513.000000 873.000000
962.000000 1947.000000 903.000000
1006.000000 1359.000000 1097.000000
1009.000000 1589.000000 1071.000000
1028.000000 1426.000000 845.000000
1113.000000 77.000000 920.000000
996.000000 1582.000000 866.000000
1093.000000 1248.000000 882.000000
815.000000 1564.000000 1039.000000
855.000000 574.000000 928.000000
865.000000 806.000000 894.000000
905.000000 1119.000000 1040.000000
930.000000 63.000000 937.000000
871.000000 499.000000 886.000000
1036.000000 1717.000000 906.000000
561.000000 1340.000000 955.000000
1161.000000 1017.000000 1007.000000
1156.000000 663.000000 940.000000
1654.000000 1095.000000 1101.000000
987.000000 731.000000 967.000000
1149.000000 1590.000000 1032.000000
750.000000 1423.000000 972.000000
889.000000 721.000000 893.000000
850.000000 658.000000 933.000000
851.000000 947.000000 1007.000000
966.000000 1722.000000 903.000000
1149.000000 1359.000000 948.000000
1087.000000 854.000000 876.000000
992.000000 770.000000 939.000000
868.000000 1006.000000 866.000000
833.000000 1017.000000 906.000000
912.000000 795.000000 878.000000
1147.000000 1485.000000 912.000000
1592.000000 1161.000000 1096.000000
893.000000 153.000000 900.000000
889.000000 269.000000 971.000000
1149.000000 379.000000 960.000000
1228.000000 1586.000000 996.000000
1039.000000 1057.000000 823.000000
941.000000 652.000000 887.000000
903.000000 447.000000 869.000000
1156.000000 702.000000 970.000000
1001.000000 1803.000000 859.000000
938.000000 245.000000 878.000000
