ply
format ascii 1.0
element vertex 800
property float x
property float y
property float z
end_header
261.000000 1615.000000 932.000000
1159.000000 6.000000 1143.000000
1989.000000 1654.000000 969.000000
1140.000000 1026.000000 850.000000
1082.000000 1946.000000 974.000000
842.000000 482.000000 898.000000
810.000000 1460.000000 963.000000
1465.000000 1584.000000 994.000000
1177.000000 664.000000 1006.000000
835.000000 852.000000 1018.000000
1178.000000 297.000000 893.000000
1165.000000 1357.000000 1023.000000
860.000000 116.000000 952.000000
1077.000000 1632.000000 848.000000
902.000000 1168.000000 1091.000000
577.000000 1683.000000 939.000000
973.000000 1269.000000 841.000000
1719.000000 1655.000000 905.000000
1106.000000 24.000000 878.000000
1014.000000 1561.000000 1091.000000
1086.000000 899.000000 1071.000000
885.000000 1029.000000 843.000000
13.000000 1652.000000 968.000000
909.000000 25.000000 1183.000000
1234.000000 1658.000000 1035.000000
959.000000 692.000000 888.000000
1141.000000 1129.000000 1082.000000
872.000000 1685.000000 949.000000
1072.000000 496.000000 896.000000
968.000000 311.000000 967.000000
1008.000000 1779.000000 1090.000000
1127.000000 817.000000 871.000000
1111.000000 1426.000000 833.000000
981.000000 1358.000000 1122.000000
932.000000 1504.000000 816.000000
1129.000000 155.000000 1020.000000
1143.000000 1210.000000 903.000000
909.000000 1871.000000 956.000000
896.000000 596.000000 1035.000000
721.000000 1609.000000 1027.000000
419.000000 1641.000000 1020.000000
840.000000 1183.000000 924.000000
935.000000 994.000000 1068.000000
1227.000000 1506.000000 942.000000
957.000000 866.000000 854.000000
1158.000000 413.000000 1020.000000
1334.000000 1635.000000 902.000000
1046.000000 1779.000000 926.000000
852.000000 1314.000000 1029.000000
1199.000000 997.000000 1003.000000
982.000000 778.000000 1026.000000
1604.000000 1663.000000 1019.000000
1835.000000 1627.000000 1014.000000
961.000000 1961.000000 1079.000000
1014.000000 1118.000000 833.000000
1163.000000 1515.000000 1084.000000
945.000000 12.000000 1032.000000
961.000000 462.000000 997.000000
867.000000 1572.000000 1052.000000
807.000000 1576.000000 866.000000
917.000000 220.000000 858.000000
1101.000000 644.000000 878.000000
1082.000000 182.000000 880.000000
1192.000000 816.000000 1006.000000
1088.000000 1661.000000 1007.000000
835.000000 712.000000 967.000000
1035.000000 1221.000000 1131.000000
831.000000 1047.000000 978.000000
838.000000 336.000000 906.000000
929.000000 7.000000 885.000000
880.000000 1378.000000 866.000000
1089.000000 12.000000 1019.000000
1057.000000 588.000000 1003.000000
145.000000 1630.000000 1009.000000
670.000000 1587.000000 899.000000
1190.000000 535.000000 957.000000
1200.000000 1663.000000 902.000000
938.000000 1638.000000 840.000000
1012.000000 1897.000000 868.000000
884.000000 1440.000000 1074.000000
510.000000 1567.000000 953.000000
951.000000 559.000000 899.000000
1014.000000 985.000000 843.000000
844.000000 919.000000 904.000000
1096.000000 300.000000 996.000000
1015.000000 1095.000000 1091.000000
945.000000 406.000000 881.000000
862.000000 241.000000 990.000000
962.000000 1988.000000 952.000000
1362.000000 1655.000000 1026.000000
1180.000000 426.000000 890.000000
383.000000 1638.000000 897.000000
1016.000000 885.000000 965.000000
746.000000 1685.000000 929.000000
978.000000 160.000000 951.000000
1068.000000 371.000000 897.000000
1090.000000 1416.000000 1107.000000
1181.000000 923.000000 905.000000
1100.000000 749.000000 1054.000000
1171.000000 1233.000000 1021.000000
992.000000 1395.000000 817.000000
1159.000000 1540.000000 845.000000
966.000000 1650.000000 1021.000000
1533.000000 1654.000000 919.000000
1154.000000 1334.000000 903.000000
1179.000000 1113.000000 967.000000
838.000000 602.000000 917.000000
1103.000000 1017.000000 1070.000000
867.000000 802.000000 897.000000
605.000000 1593.000000 1017.000000
947.000000 1765.000000 991.000000
1047.000000 1523.000000 818.000000
939.000000 878.000000 1067.000000
1049.000000 1885.000000 1067.000000
1031.000000 776.000000 921.000000
1629.000000 1592.000000 933.000000
1889.000000 1648.000000 916.000000
884.000000 380.000000 998.000000
977.000000 667.000000 1006.000000
1099.000000 1305.000000 1096.000000
1183.000000 192.000000 929.000000
1711.000000 1621.000000 1010.000000
1428.000000 1681.000000 941.000000
907.000000 1139.000000 848.000000
1070.000000 1321.000000 835.000000
1069.000000 97.000000 951.000000
866.000000 1288.000000 925.000000
327.000000 1684.000000 983.000000
940.000000 1857.000000 1059.000000
1160.000000 726.000000 918.000000
1291.000000 1581.000000 983.000000
924.000000 1272.000000 1096.000000
921.000000 115.000000 1039.000000
881.000000 758.000000 1051.000000
838.000000 1475.000000 859.000000
1086.000000 487.000000 1000.000000
981.000000 1462.000000 1106.000000
1073.000000 906.000000 877.000000
860.000000 11.000000 1092.000000
846.000000 956.000000 1030.000000
965.000000 1716.000000 902.000000
474.000000 1667.000000 936.000000
868.000000 506.000000 994.000000
102.000000 1640.000000 917.000000
1504.000000 1679.000000 1013.000000
1111.000000 1123.000000 861.000000
1049.000000 1207.000000 865.000000
772.000000 1553.000000 959.000000
848.000000 1214.000000 1019.000000
1108.000000 1700.000000 915.000000
664.000000 1681.000000 988.000000
812.000000 1650.000000 1020.000000
1195.000000 1413.000000 946.000000
1294.000000 1698.000000 968.000000
889.000000 1078.000000 1050.000000
930.000000 106.000000 885.000000
1177.000000 907.000000 1037.000000
1069.000000 25.000000 1113.000000
1067.000000 1804.000000 1017.000000
1084.000000 276.000000 903.000000
1154.000000 1608.000000 1055.000000
1141.000000 556.000000 1038.000000
877.000000 22.000000 965.000000
1185.000000 623.000000 920.000000
1152.000000 51.000000 958.000000
350.000000 1592.000000 976.000000
930.000000 312.000000 878.000000
1070.000000 211.000000 971.000000
849.000000 1375.000000 956.000000
966.000000 1822.000000 900.000000
1038.000000 682.000000 936.000000
1380.000000 1576.000000 957.000000
528.000000 1645.000000 1008.000000
1024.000000 970.000000 1080.000000
1635.000000 1684.000000 934.000000
1558.000000 1588.000000 992.000000
1802.000000 1621.000000 928.000000
971.000000 553.000000 1003.000000
928.000000 949.000000 828.000000
579.000000 1599.000000 902.000000
1075.000000 1867.000000 929.000000
956.000000 69.000000 963.000000
854.000000 1090.000000 902.000000
1183.000000 1446.000000 1029.000000
1023.000000 1723.000000 1021.000000
1116.000000 1217.000000 1090.000000
1023.000000 1993.000000 1022.000000
1094.000000 661.000000 1039.000000
1139.000000 554.000000 885.000000
853.000000 1653.000000 868.000000
951.000000 779.000000 871.000000
1186.000000 362.000000 953.000000
903.000000 1223.000000 876.000000
1123.000000 79.000000 1066.000000
1219.000000 1548.000000 1024.000000
1184.000000 1459.000000 870.000000
911.000000 1942.000000 1008.000000
872.000000 680.000000 894.000000
1224.000000 1579.000000 893.000000
1187.000000 1035.000000 925.000000
1079.000000 1503.000000 1104.000000
186.000000 1659.000000 936.000000
1132.000000 106.000000 892.000000
1056.000000 579.000000 915.000000
1053.000000 822.000000 1049.000000
833.000000 1131.000000 999.000000
1170.000000 1680.000000 982.000000
964.000000 1051.000000 813.000000
1449.000000 1603.000000 912.000000
829.000000 1496.000000 1040.000000
1087.000000 405.000000 973.000000
933.000000 53.000000 1106.000000
907.000000 1358.000000 1079.000000
935.000000 1529.000000 1080.000000
987.000000 1153.000000 1148.000000
1064.000000 1051.000000 819.000000
862.000000 194.000000 919.000000
427.000000 1582.000000 943.000000
674.000000 1558.000000 979.000000
921.000000 486.000000 869.000000
1086.000000 728.000000 878.000000
1186.000000 841.000000 926.000000
938.000000 1926.000000 900.000000
1167.000000 264.000000 969.000000
1136.000000 831.000000 1066.000000
885.000000 1571.000000 832.000000
874.000000 677.000000 1033.000000
938.000000 233.000000 957.000000
841.000000 1002.000000 909.000000
1031.000000 1966.000000 910.000000
1911.000000 1654.000000 996.000000
979.000000 392.000000 956.000000
834.000000 412.000000 941.000000
1762.000000 1677.000000 973.000000
1170.000000 1066.000000 1038.000000
1006.000000 1593.000000 830.000000
1070.000000 1147.000000 1122.000000
226.000000 1636.000000 1003.000000
987.000000 618.000000 942.000000
1160.000000 7.000000 1061.000000
1038.000000 720.000000 1011.000000
937.000000 1097.000000 1112.000000
971.000000 1188.000000 849.000000
651.000000 1664.000000 911.000000
827.000000 791.000000 965.000000
1075.000000 1601.000000 1059.000000
1038.000000 1695.000000 878.000000
867.000000 401.000000 869.000000
1160.000000 1270.000000 952.000000
1173.000000 741.000000 1023.000000
790.000000 1570.000000 1035.000000
1012.000000 899.000000 1044.000000
977.000000 489.000000 925.000000
745.000000 1613.000000 898.000000
889.000000 1638.000000 1012.000000
1154.000000 1617.000000 858.000000
1140.000000 362.000000 869.000000
401.000000 1684.000000 958.000000
1105.000000 1276.000000 887.000000
1107.000000 433.000000 866.000000
1091.000000 968.000000 835.000000
1438.000000 1646.000000 1035.000000
1179.000000 459.000000 962.000000
944.000000 1342.000000 844.000000
866.000000 266.000000 894.000000
1028.000000 1298.000000 1124.000000
910.000000 185.000000 1011.000000
923.000000 1428.000000 828.000000
1074.000000 4.000000 944.000000
877.000000 547.000000 880.000000
871.000000 57.000000 1033.000000
923.000000 626.000000 880.000000
1098.000000 28.000000 1182.000000
850.000000 1390.000000 1030.000000
898.000000 306.000000 997.000000
820.000000 911.000000 975.000000
1000.000000 921.000000 880.000000
1054.000000 833.000000 879.000000
1141.000000 233.000000 883.000000
1181.000000 1188.000000 963.000000
1042.000000 1449.000000 815.000000
847.000000 626.000000 986.000000
1205.000000 897.000000 969.000000
886.000000 868.000000 871.000000
314.000000 1661.000000 912.000000
964.000000 1215.000000 1117.000000
1155.000000 125.000000 958.000000
1690.000000 1686.000000 981.000000
1077.000000 1879.000000 1000.000000
940.000000 719.000000 1039.000000
746.000000 1670.000000 999.000000
83.000000 1656.000000 985.000000
831.000000 854.000000 932.000000
1642.000000 1605.000000 1003.000000
799.000000 1508.000000 911.000000
1073.000000 1728.000000 970.000000
938.000000 1695.000000 973.000000
888.000000 828.000000 1060.000000
1699.000000 1597.000000 943.000000
1085.000000 1084.000000 1089.000000
598.000000 1663.000000 1006.000000
1174.000000 1159.000000 1027.000000
1153.000000 486.000000 1022.000000
1018.000000 816.000000 979.000000
934.000000 1594.000000 1049.000000
1132.000000 953.000000 1065.000000
998.000000 1848.000000 1098.000000
1180.000000 594.000000 993.000000
1177.000000 497.000000 898.000000
896.000000 446.000000 1017.000000
1264.000000 1636.000000 896.000000
838.000000 1421.000000 903.000000
1154.000000 1293.000000 1052.000000
1199.000000 774.000000 950.000000
993.000000 1032.000000 1071.000000
1359.000000 1687.000000 945.000000
1099.000000 1570.000000 826.000000
1160.000000 1096.000000 902.000000
994.000000 848.000000 910.000000
958.000000 172.000000 886.000000
942.000000 2.000000 954.000000
1511.000000 1593.000000 942.000000
1160.000000 1394.000000 869.000000
836.000000 536.000000 940.000000
474.000000 1603.000000 999.000000
470.000000 1685.000000 1002.000000
1048.000000 528.000000 960.000000
875.000000 898.000000 1052.000000
1128.000000 1365.000000 1080.000000
1109.000000 1494.000000 826.000000
1012.000000 1627.000000 1066.000000
610.000000 1567.000000 954.000000
812.000000 1670.000000 920.000000
293.000000 1624.000000 998.000000
1076.000000 81.000000 1017.000000
870.000000 964.000000 860.000000
951.000000 1790.000000 1054.000000
888.000000 57.000000 906.000000
907.000000 1291.000000 871.000000
263.000000 1676.000000 962.000000
1296.000000 1631.000000 1030.000000
1142.000000 348.000000 1008.000000
955.000000 1993.000000 1019.000000
1144.000000 1450.000000 1084.000000
1049.000000 1363.000000 1115.000000
988.000000 727.000000 940.000000
961.000000 255.000000 896.000000
896.000000 742.000000 882.000000
1558.000000 1685.000000 973.000000
1031.000000 1834.000000 889.000000
531.000000 1645.000000 909.000000
1066.000000 1945.000000 1039.000000
1228.000000 1697.000000 952.000000
827.000000 977.000000 969.000000
908.000000 1685.000000 887.000000
1060.000000 435.000000 919.000000
854.000000 1023.000000 1038.000000
938.000000 1412.000000 1102.000000
1057.000000 1384.000000 820.000000
1005.000000 1327.000000 824.000000
840.000000 1268.000000 982.000000
925.000000 1826.000000 1003.000000
1135.000000 881.000000 884.000000
1140.000000 205.000000 978.000000
1842.000000 1663.000000 959.000000
1772.000000 1614.000000 987.000000
1398.000000 1597.000000 1016.000000
1040.000000 652.000000 999.000000
967.000000 938.000000 1073.000000
1149.000000 962.000000 863.000000
849.000000 291.000000 951.000000
1595.000000 1641.000000 908.000000
1056.000000 159.000000 936.000000
887.000000 1227.000000 1069.000000
978.000000 1458.000000 814.000000
1037.000000 1265.000000 839.000000
1113.000000 1555.000000 1082.000000
988.000000 840.000000 1040.000000
1209.000000 1518.000000 882.000000
948.000000 1567.000000 823.000000
839.000000 747.000000 913.000000
1071.000000 327.000000 943.000000
1194.000000 974.000000 942.000000
1295.000000 1585.000000 918.000000
445.000000 1624.000000 898.000000
1397.000000 1639.000000 905.000000
999.000000 1654.000000 850.000000
1143.000000 619.000000 1038.000000
1165.000000 1333.000000 965.000000
1193.000000 714.000000 970.000000
660.000000 1622.000000 1010.000000
862.000000 1134.000000 1057.000000
895.000000 158.000000 880.000000
1146.000000 88.000000 1008.000000
1218.000000 1601.000000 1057.000000
1004.000000 1790.000000 1021.000000
1029.000000 1424.000000 1118.000000
964.000000 353.000000 910.000000
994.000000 1909.000000 1087.000000
716.000000 1563.000000 933.000000
1142.000000 167.000000 888.000000
1051.000000 268.000000 956.000000
522.000000 1691.000000 967.000000
926.000000 511.000000 1015.000000
1074.000000 142.000000 993.000000
956.000000 611.000000 1021.000000
197.000000 1603.000000 959.000000
1489.000000 1680.000000 953.000000
1161.000000 1007.000000 1052.000000
336.000000 1604.000000 917.000000
1950.000000 1649.000000 921.000000
856.000000 566.000000 993.000000
1110.000000 1366.000000 845.000000
880.000000 1504.000000 1073.000000
1193.000000 1055.000000 982.000000
838.000000 1532.000000 838.000000
1212.000000 1490.000000 999.000000
1168.000000 1155.000000 913.000000
962.000000 1769.000000 931.000000
358.000000 1641.000000 1012.000000
1139.000000 700.000000 1051.000000
1244.000000 1565.000000 949.000000
1660.000000 1637.000000 906.000000
916.000000 1081.000000 835.000000
1146.000000 668.000000 911.000000
835.000000 660.000000 937.000000
1104.000000 1183.000000 866.000000
1022.000000 1962.000000 1076.000000
979.000000 1736.000000 1060.000000
549.000000 1591.000000 993.000000
987.000000 546.000000 945.000000
1125.000000 49.000000 1119.000000
1125.000000 492.000000 869.000000
957.000000 121.000000 992.000000
937.000000 407.000000 997.000000
1511.000000 1620.000000 1012.000000
1036.000000 1990.000000 964.000000
859.000000 182.000000 977.000000
1043.000000 1825.000000 1067.000000
1149.000000 12.000000 1003.000000
1136.000000 4.000000 925.000000
881.000000 343.000000 866.000000
1164.000000 783.000000 903.000000
1074.000000 1926.000000 919.000000
988.000000 1524.000000 817.000000
799.000000 1687.000000 976.000000
841.000000 470.000000 956.000000
906.000000 4.000000 1128.000000
843.000000 794.000000 1023.000000
859.000000 1145.000000 882.000000
918.000000 1949.000000 950.000000
1094.000000 324.000000 871.000000
1121.000000 1665.000000 868.000000
934.000000 1915.000000 1055.000000
954.000000 69.000000 1023.000000
1406.000000 1678.000000 995.000000
798.000000 1509.000000 992.000000
1569.000000 1592.000000 935.000000
1062.000000 1150.000000 843.000000
895.000000 952.000000 1061.000000
1340.000000 1596.000000 1013.000000
1021.000000 1504.000000 1103.000000
850.000000 350.000000 961.000000
1024.000000 1664.000000 1023.000000
941.000000 1058.000000 1066.000000
833.000000 1443.000000 1014.000000
932.000000 791.000000 1053.000000
970.000000 1300.000000 1117.000000
929.000000 661.000000 1040.000000
1050.000000 1042.000000 1071.000000
1085.000000 74.000000 901.000000
950.000000 56.000000 906.000000
1077.000000 1254.000000 1110.000000
800.000000 1632.000000 879.000000
882.000000 136.000000 1002.000000
1070.000000 1818.000000 960.000000
835.000000 1127.000000 941.000000
964.000000 993.000000 817.000000
1090.000000 542.000000 1017.000000
919.000000 1882.000000 1011.000000
932.000000 353.000000 980.000000
934.000000 1821.000000 947.000000
866.000000 1342.000000 908.000000
927.000000 1474.000000 1094.000000
1020.000000 759.000000 974.000000
134.000000 1659.000000 961.000000
1064.000000 222.000000 916.000000
1104.000000 6.000000 1073.000000
885.000000 1473.000000 828.000000
870.000000 1232.000000 921.000000
959.000000 1876.000000 885.000000
1298.000000 1677.000000 916.000000
1187.000000 247.000000 917.000000
890.000000 5.000000 1045.000000
1142.000000 1650.000000 1020.000000
834.000000 239.000000 937.000000
1015.000000 1742.000000 898.000000
1036.000000 885.000000 913.000000
1046.000000 1099.000000 1137.000000
1082.000000 785.000000 878.000000
1051.000000 768.000000 1036.000000
850.000000 1321.000000 969.000000
1106.000000 244.000000 998.000000
1079.000000 965.000000 1076.000000
915.000000 821.000000 867.000000
1187.000000 368.000000 898.000000
958.000000 1117.000000 836.000000
971.000000 434.000000 921.000000
1096.000000 588.000000 878.000000
1057.000000 635.000000 910.000000
1117.000000 1688.000000 968.000000
1112.000000 1072.000000 839.000000
705.000000 1649.000000 909.000000
736.000000 1564.000000 999.000000
48.000000 1646.000000 925.000000
892.000000 1305.000000 1066.000000
851.000000 725.000000 1019.000000
1156.000000 1403.000000 1052.000000
598.000000 1652.000000 899.000000
1147.000000 779.000000 1053.000000
984.000000 727.000000 1006.000000
1044.000000 1765.000000 1049.000000
1210.000000 1459.000000 920.000000
1200.000000 941.000000 1001.000000
966.000000 113.000000 926.000000
404.000000 1598.000000 990.000000
493.000000 1608.000000 921.000000
977.000000 1965.000000 904.000000
1160.000000 1689.000000 928.000000
1076.000000 52.000000 1063.000000
967.000000 1704.000000 1018.000000
1182.000000 1565.000000 1076.000000
1115.000000 441.000000 1002.000000
864.000000 1428.000000 853.000000
1182.000000 568.000000 915.000000
940.000000 3.000000 1085.000000
983.000000 672.000000 932.000000
875.000000 74.000000 982.000000
772.000000 1621.000000 1041.000000
1038.000000 609.000000 956.000000
1180.000000 1402.000000 998.000000
1748.000000 1619.000000 932.000000
835.000000 1217.000000 965.000000
1140.000000 55.000000 906.000000
879.000000 453.000000 866.000000
1075.000000 48.000000 975.000000
848.000000 1081.000000 1016.000000
1060.000000 475.000000 955.000000
827.000000 1607.000000 1048.000000
1086.000000 131.000000 902.000000
1153.000000 1198.000000 1057.000000
863.000000 1262.000000 1036.000000
1480.000000 1646.000000 913.000000
1552.000000 1654.000000 1024.000000
243.000000 1662.000000 915.000000
1192.000000 663.000000 954.000000
1256.000000 1590.000000 1022.000000
1656.000000 1656.000000 1008.000000
1163.000000 1293.000000 1000.000000
892.000000 916.000000 850.000000
778.000000 1574.000000 911.000000
1136.000000 884.000000 1064.000000
1278.000000 1678.000000 1014.000000
1178.000000 310.000000 944.000000
946.000000 1152.000000 1115.000000
1178.000000 994.000000 893.000000
1061.000000 1724.000000 916.000000
885.000000 57.000000 1085.000000
1175.000000 854.000000 1038.000000
1116.000000 923.000000 851.000000
996.000000 1256.000000 1132.000000
1349.000000 1586.000000 916.000000
1137.000000 612.000000 900.000000
1015.000000 1032.000000 820.000000
1130.000000 285.000000 876.000000
846.000000 1605.000000 847.000000
362.000000 1678.000000 923.000000
1044.000000 946.000000 861.000000
1191.000000 413.000000 939.000000
1197.000000 1506.000000 1046.000000
955.000000 1680.000000 865.000000
861.000000 430.000000 982.000000
697.000000 1682.000000 948.000000
1100.000000 591.000000 1032.000000
1104.000000 356.000000 974.000000
981.000000 506.000000 979.000000
560.000000 1572.000000 942.000000
879.000000 600.000000 886.000000
1047.000000 728.000000 912.000000
887.000000 4.000000 918.000000
911.000000 256.000000 994.000000
1765.000000 1673.000000 922.000000
1068.000000 1100.000000 833.000000
1004.000000 1227.000000 848.000000
1125.000000 1063.000000 1062.000000
989.000000 798.000000 901.000000
1128.000000 757.000000 877.000000
977.000000 947.000000 842.000000
1431.000000 1584.000000 956.000000
1070.000000 682.000000 893.000000
890.000000 545.000000 1027.000000
892.000000 1110.000000 1092.000000
1203.000000 1620.000000 871.000000
1172.000000 533.000000 1005.000000
904.000000 269.000000 860.000000
151.000000 1627.000000 918.000000
1111.000000 1166.000000 1099.000000
624.000000 1678.000000 957.000000
303.000000 1599.000000 955.000000
1176.000000 1378.000000 915.000000
1336.000000 1678.000000 989.000000
1063.000000 1548.000000 1088.000000
1457.000000 1678.000000 995.000000
857.000000 1042.000000 883.000000
957.000000 301.000000 919.000000
183.000000 1658.000000 986.000000
892.000000 50.000000 1142.000000
1115.000000 1322.000000 870.000000
1097.000000 800.000000 1062.000000
627.000000 1612.000000 892.000000
1176.000000 961.000000 1040.000000
850.000000 1665.000000 989.000000
981.000000 1588.000000 1065.000000
900.000000 1030.000000 1057.000000
1018.000000 1173.000000 840.000000
701.000000 1649.000000 1001.000000
1010.000000 1858.000000 1050.000000
1188.000000 1640.000000 1038.000000
378.000000 1585.000000 935.000000
972.000000 740.000000 893.000000
1006.000000 1792.000000 900.000000
1103.000000 117.000000 1038.000000
888.000000 107.000000 911.000000
1076.000000 1198.000000 1116.000000
1092.000000 539.000000 882.000000
943.000000 186.000000 974.000000
1043.000000 924.000000 1073.000000
1090.000000 850.000000 1068.000000
826.000000 1543.000000 1055.000000
1803.000000 1655.000000 989.000000
890.000000 1627.000000 847.000000
1401.000000 1591.000000 915.000000
1145.000000 306.000000 982.000000
1108.000000 7.000000 1138.000000
1176.000000 1110.000000 1017.000000
1154.000000 1489.000000 845.000000
886.000000 1522.000000 825.000000
1093.000000 1229.000000 879.000000
869.000000 1183.000000 1057.000000
926.000000 362.000000 870.000000
837.000000 1047.000000 928.000000
1155.000000 52.000000 1040.000000
1215.000000 1687.000000 1000.000000
837.000000 902.000000 1020.000000
1050.000000 1571.000000 827.000000
1125.000000 1266.000000 1082.000000
841.000000 432.000000 897.000000
420.000000 1661.000000 919.000000
1129.000000 706.000000 885.000000
1595.000000 1615.000000 1011.000000
1031.000000 1172.000000 1137.000000
1055.000000 1891.000000 890.000000
1203.000000 848.000000 971.000000
1097.000000 1016.000000 826.000000
916.000000 996.000000 824.000000
835.000000 1419.000000 971.000000
1065.000000 1457.000000 1114.000000
916.000000 15.000000 993.000000
954.000000 209.000000 917.000000
987.000000 596.000000 987.000000
982.000000 1111.000000 1123.000000
984.000000 1406.000000 1117.000000
1092.000000 862.000000 871.000000
948.000000 1232.000000 861.000000
1163.000000 1050.000000 886.000000
1684.000000 1669.000000 935.000000
1606.000000 1681.000000 973.000000
1076.000000 708.000000 1038.000000
571.000000 1627.000000 1023.000000
1047.000000 869.000000 1058.000000
1055.000000 1759.000000 1002.000000
1210.000000 1453.000000 968.000000
931.000000 1320.000000 1096.000000
1016.000000 857.000000 1005.000000
999.000000 693.000000 972.000000
1112.000000 7.000000 973.000000
1188.000000 1575.000000 860.000000
922.000000 1185.000000 854.000000
844.000000 673.000000 996.000000
885.000000 1100.000000 866.000000
837.000000 384.000000 902.000000
944.000000 21.000000 1151.000000
1841.000000 1645.000000 915.000000
1601.000000 1587.000000 972.000000
1727.000000 1666.000000 1003.000000
814.000000 1460.000000 915.000000
1166.000000 159.000000 989.000000
920.000000 1211.000000 1099.000000
834.000000 1170.000000 970.000000
870.000000 1191.000000 887.000000
918.000000 1381.000000 838.000000
960.000000 640.000000 906.000000
1331.000000 1574.000000 959.000000
1135.000000 1294.000000 920.000000
655.000000 1561.000000 936.000000
1124.000000 1491.000000 1097.000000
869.000000 1352.000000 1051.000000
922.000000 533.000000 871.000000
215.000000 1624.000000 921.000000
1027.000000 822.000000 931.000000
1067.000000 374.000000 944.000000
990.000000 1999.000000 988.000000
1188.000000 1420.000000 898.000000
1251.000000 1676.000000 917.000000
1067.000000 1848.000000 1034.000000
390.000000 1674.000000 1003.000000
981.000000 1526.000000 1088.000000
986.000000 1992.000000 1054.000000
834.000000 959.000000 926.000000
939.000000 78.000000 1067.000000
915.000000 1695.000000 932.000000
928.000000 1963.000000 1046.000000
1661.000000 1583.000000 966.000000
823.000000 838.000000 975.000000
1513.000000 1578.000000 986.000000
1094.000000 228.000000 881.000000
917.000000 672.000000 882.000000
1085.000000 1901.000000 959.000000
900.000000 1336.000000 862.000000
1166.000000 397.000000 976.000000
1060.000000 1700.000000 1005.000000
1882.000000 1637.000000 964.000000
931.000000 568.000000 1023.000000
1103.000000 179.000000 990.000000
934.000000 279.000000 961.000000
648.000000 1576.000000 1014.000000
876.000000 501.000000 873.000000
980.000000 983.000000 1074.000000
254.000000 1609.000000 978.000000
1945.000000 1640.000000 966.000000
949.000000 453.000000 885.000000
1017.000000 1488.000000 817.000000
765.000000 1656.000000 897.000000
950.000000 909.000000 839.000000
929.000000 1655.000000 994.000000
1574.000000 1675.000000 931.000000
851.000000 1352.000000 1003.000000
871.000000 149.000000 922.000000
1162.000000 1225.000000 942.000000
880.000000 1395.000000 1066.000000
965.000000 823.000000 871.000000
836.000000 1092.000000 971.000000
1101.000000 386.000000 868.000000
1112.000000 1621.000000 1041.000000
1003.000000 1076.000000 819.000000
296.000000 1620.000000 902.000000
1150.000000 453.000000 869.000000
1061.000000 1637.000000 1035.000000
946.000000 834.000000 1058.000000
885.000000 224.000000 890.000000
1230.000000 1529.000000 981.000000
1053.000000 1005.000000 827.000000
940.000000 152.000000 1021.000000
1160.000000 843.000000 888.000000
1105.000000 1120.000000 1108.000000
1140.000000 3.000000 1102.000000
838.000000 702.000000 918.000000
895.000000 715.000000 1051.000000
1144.000000 407.000000 867.000000
1076.000000 1672.000000 869.000000
1125.000000 391.000000 994.000000
934.000000 1858.000000 918.000000
1058.000000 1972.000000 1002.000000
831.000000 994.000000 1011.000000
187.000000 1612.000000 1002.000000
979.000000 1927.000000 880.000000
1090.000000 1351.000000 1101.000000
1182.000000 1078.000000 939.000000
484.000000 1645.000000 1017.000000
865.000000 1677.000000 904.000000
560.000000 1678.000000 987.000000
944.000000 1728.000000 941.000000
972.000000 1081.000000 1089.000000
1824.000000 1622.000000 967.000000
935.000000 725.000000 868.000000
1191.000000 770.000000 994.000000
851.000000 875.000000 898.000000
845.000000 1168.000000 1021.000000
874.000000 633.000000 1023.000000
1024.000000 802.000000 1021.000000
535.000000 1595.000000 913.000000
1069.000000 627.000000 1022.000000
857.000000 638.000000 896.000000
835.000000 753.000000 987.000000
909.000000 1911.000000 976.000000
950.000000 508.000000 895.000000
1726.000000 1679.000000 947.000000
1152.000000 89.000000 932.000000
1134.000000 1154.000000 883.000000
1142.000000 22.000000 1181.000000
