ply
format ascii 1.0
element vertex 724
property float x
property float y
property float z
end_header
401.000000 370.000000 896.000000
1218.000000 1950.000000 902.000000
1979.000000 556.000000 912.000000
66.000000 1544.000000 1105.000000
1125.000000 996.000000 1041.000000
1243.000000 9.000000 917.000000
1796.000000 1423.000000 1053.000000
681.000000 1564.000000 859.000000
412.000000 1001.000000 1040.000000
901.000000 546.000000 910.000000
1634.000000 928.000000 1001.000000
1291.000000 1474.000000 1063.000000
320.000000 1963.000000 1085.000000
764.000000 52.000000 869.000000
1695.000000 168.000000 872.000000
769.000000 1060.000000 853.000000
824.000000 1929.000000 916.000000
1559.000000 1645.000000 849.000000
561.000000 708.000000 858.000000
91.000000 1185.000000 1014.000000
1883.000000 1138.000000 850.000000
466.000000 1291.000000 857.000000
1350.000000 806.000000 909.000000
1941.000000 859.000000 983.000000
1584.000000 1337.000000 846.000000
343.000000 1664.000000 1123.000000
1422.000000 234.000000 936.000000
1013.000000 180.000000 932.000000
1721.000000 442.000000 939.000000
1280.000000 1678.000000 869.000000
1096.000000 727.000000 984.000000
1132.000000 1264.000000 999.000000
612.000000 236.000000 986.000000
1541.000000 1540.000000 1085.000000
1869.000000 1078.000000 1100.000000
975.000000 911.000000 855.000000
1808.000000 710.000000 855.000000
1701.000000 1191.000000 984.000000
1027.000000 1821.000000 897.000000
587.000000 1134.000000 973.000000
670.000000 1769.000000 951.000000
1789.000000 936.000000 839.000000
495.000000 1489.000000 955.000000
551.000000 516.000000 966.000000
172.000000 1801.000000 1104.000000
1792.000000 1334.000000 864.000000
413.000000 844.000000 906.000000
1896.000000 375.000000 861.000000
1176.000000 899.000000 870.000000
1439.000000 1772.000000 948.000000
1460.000000 1481.000000 910.000000
847.000000 1738.000000 860.000000
226.000000 1041.000000 978.000000
1688.000000 1503.000000 904.000000
17.000000 1371.000000 1019.000000
1426.000000 53.000000 858.000000
1061.000000 10.000000 859.000000
1598.000000 298.000000 972.000000
1253.000000 190.000000 865.000000
1874.000000 1252.000000 1030.000000
1796.000000 911.000000 1085.000000
495.000000 221.000000 847.000000
992.000000 1999.000000 909.000000
1988.000000 730.000000 862.000000
1791.000000 280.000000 976.000000
833.000000 200.000000 945.000000
1554.000000 114.000000 970.000000
915.000000 34.000000 963.000000
1187.000000 1789.000000 973.000000
1818.000000 585.000000 979.000000
1522.000000 805.000000 944.000000
848.000000 954.000000 968.000000
237.000000 1527.000000 1125.000000
691.000000 205.000000 836.000000
1328.000000 1839.000000 834.000000
1719.000000 1092.000000 847.000000
1948.000000 983.000000 868.000000
599.000000 1394.000000 864.000000
1654.000000 1352.000000 997.000000
322.000000 1821.000000 1172.000000
543.000000 797.000000 997.000000
246.000000 1176.000000 1071.000000
1390.000000 1617.000000 977.000000
1733.000000 322.000000 827.000000
1160.000000 133.000000 989.000000
565.000000 1642.000000 945.000000
1539.000000 195.000000 828.000000
1840.000000 525.000000 828.000000
564.000000 363.000000 890.000000
1348.000000 103.000000 997.000000
454.000000 587.000000 860.000000
1698.000000 1549.000000 1056.000000
1770.000000 1028.000000 982.000000
156.000000 1316.000000 1072.000000
907.000000 119.000000 831.000000
1914.000000 706.000000 1000.000000
1863.000000 439.000000 997.000000
1795.000000 830.000000 949.000000
607.000000 1235.000000 861.000000
1099.000000 1917.000000 990.000000
1162.000000 1830.000000 829.000000
1065.000000 876.000000 971.000000
198.000000 1667.000000 1168.000000
1412.000000 1617.000000 828.000000
633.000000 100.000000 927.000000
623.000000 1035.000000 868.000000
501.000000 655.000000 985.000000
1036.000000 607.000000 922.000000
899.000000 1817.000000 975.000000
1905.000000 846.000000 826.000000
1690.000000 1234.000000 829.000000
1119.000000 141.000000 836.000000
521.000000 1348.000000 978.000000
1255.000000 879.000000 989.000000
757.000000 1655.000000 940.000000
1244.000000 1354.000000 1000.000000
741.000000 1834.000000 845.000000
931.000000 1899.000000 826.000000
477.000000 281.000000 978.000000
1573.000000 1479.000000 824.000000
1426.000000 904.000000 978.000000
1164.000000 1127.000000 1006.000000
1318.000000 1840.000000 976.000000
543.000000 1550.000000 838.000000
330.000000 953.000000 937.000000
640.000000 1696.000000 836.000000
506.000000 929.000000 965.000000
1098.000000 1953.000000 834.000000
134.000000 1447.000000 1035.000000
1527.000000 1633.000000 982.000000
1901.000000 1065.000000 968.000000
1049.000000 54.000000 988.000000
1426.000000 1481.000000 1043.000000
706.000000 1058.000000 973.000000
485.000000 458.000000 837.000000
1562.000000 1448.000000 991.000000
338.000000 1106.000000 1006.000000
1754.000000 1298.000000 1064.000000
622.000000 1525.000000 970.000000
424.000000 489.000000 949.000000
749.000000 109.000000 987.000000
498.000000 1167.000000 881.000000
897.000000 1014.000000 864.000000
1605.000000 305.000000 843.000000
1909.000000 634.000000 826.000000
1376.000000 170.000000 833.000000
472.000000 1418.000000 852.000000
582.000000 582.000000 862.000000
281.000000 1845.000000 1055.000000
1691.000000 1403.000000 827.000000
1412.000000 1743.000000 828.000000
1309.000000 1716.000000 984.000000
775.000000 1831.000000 976.000000
1899.000000 968.000000 1047.000000
1686.000000 212.000000 987.000000
409.000000 879.000000 1024.000000
970.000000 969.000000 963.000000
687.000000 1146.000000 887.000000
1816.000000 1150.000000 995.000000
531.000000 826.000000 879.000000
739.000000 957.000000 913.000000
1302.000000 73.000000 831.000000
1850.000000 1237.000000 912.000000
977.000000 1910.000000 990.000000
450.000000 729.000000 903.000000
1618.000000 1259.000000 930.000000
497.000000 399.000000 982.000000
1076.000000 962.000000 890.000000
1744.000000 1406.000000 944.000000
298.000000 1014.000000 1066.000000
1713.000000 847.000000 1030.000000
801.000000 167.000000 835.000000
232.000000 1891.000000 1150.000000
523.000000 1232.000000 974.000000
721.000000 235.000000 944.000000
47.000000 1274.000000 1075.000000
1767.000000 435.000000 833.000000
159.000000 1100.000000 1053.000000
1610.000000 1553.000000 974.000000
162.000000 1602.000000 1079.000000
252.000000 1721.000000 1082.000000
537.000000 164.000000 938.000000
51.000000 1430.000000 1112.000000
1853.000000 1030.000000 825.000000
1635.000000 828.000000 947.000000
366.000000 1768.000000 1082.000000
1169.000000 39.000000 837.000000
1685.000000 1436.000000 1066.000000
1533.000000 88.000000 862.000000
1700.000000 344.000000 991.000000
599.000000 269.000000 839.000000
1519.000000 218.000000 992.000000
1829.000000 284.000000 870.000000
921.000000 143.000000 985.000000
1450.000000 72.000000 966.000000
950.000000 20.000000 857.000000
187.000000 1238.000000 998.000000
590.000000 155.000000 841.000000
1291.000000 898.000000 886.000000
1531.000000 890.000000 1014.000000
1264.000000 170.000000 973.000000
1793.000000 1196.000000 825.000000
1944.000000 452.000000 924.000000
1515.000000 279.000000 900.000000
751.000000 1691.000000 837.000000
1135.000000 7.000000 940.000000
1163.000000 831.000000 955.000000
1015.000000 106.000000 830.000000
833.000000 927.000000 864.000000
429.000000 997.000000 932.000000
381.000000 1874.000000 1095.000000
1925.000000 599.000000 995.000000
1814.000000 691.000000 961.000000
148.000000 1213.000000 1101.000000
479.000000 328.000000 835.000000
1501.000000 1558.000000 825.000000
1791.000000 606.000000 877.000000
1914.000000 1151.000000 1036.000000
664.000000 1624.000000 980.000000
591.000000 1132.000000 843.000000
820.000000 1737.000000 962.000000
1348.000000 26.000000 923.000000
1196.000000 1743.000000 879.000000
845.000000 1839.000000 828.000000
1790.000000 1306.000000 965.000000
1524.000000 1397.000000 908.000000
1807.000000 816.000000 846.000000
1754.000000 925.000000 974.000000
1078.000000 860.000000 868.000000
1988.000000 662.000000 941.000000
1985.000000 831.000000 891.000000
808.000000 1050.000000 949.000000
595.000000 649.000000 941.000000
144.000000 1480.000000 1133.000000
1201.000000 1891.000000 986.000000
1626.000000 1565.000000 849.000000
1499.000000 1533.000000 991.000000
588.000000 1428.000000 962.000000
1653.000000 373.000000 904.000000
1831.000000 1181.000000 1092.000000
931.000000 1797.000000 869.000000
238.000000 1762.000000 1175.000000
1515.000000 1711.000000 914.000000
220.000000 1143.000000 976.000000
1868.000000 344.000000 956.000000
261.000000 1619.000000 1086.000000
1244.000000 74.000000 994.000000
443.000000 790.000000 985.000000
1427.000000 804.000000 976.000000
1147.000000 932.000000 960.000000
1896.000000 746.000000 825.000000
1708.000000 1097.000000 946.000000
684.000000 106.000000 841.000000
920.000000 192.000000 897.000000
1849.000000 898.000000 998.000000
914.000000 890.000000 930.000000
1738.000000 1002.000000 892.000000
1091.000000 1991.000000 925.000000
93.000000 1312.000000 996.000000
1250.000000 811.000000 913.000000
595.000000 1313.000000 920.000000
1937.000000 503.000000 840.000000
817.000000 46.000000 954.000000
619.000000 1489.000000 847.000000
1943.000000 954.000000 961.000000
1241.000000 1887.000000 831.000000
1664.000000 1168.000000 896.000000
1805.000000 1007.000000 1072.000000
41.000000 1484.000000 1032.000000
1505.000000 898.000000 921.000000
1398.000000 1555.000000 903.000000
1870.000000 795.000000 999.000000
909.000000 1965.000000 945.000000
1761.000000 515.000000 888.000000
1982.000000 758.000000 954.000000
1167.000000 185.000000 908.000000
1436.000000 162.000000 998.000000
1346.000000 850.000000 999.000000
1027.000000 1889.000000 827.000000
567.000000 488.000000 876.000000
1790.000000 376.000000 1001.000000
1116.000000 1789.000000 909.000000
857.000000 40.000000 851.000000
1332.000000 211.000000 916.000000
1616.000000 118.000000 897.000000
1452.000000 1571.000000 1064.000000
1767.000000 218.000000 908.000000
1788.000000 495.000000 980.000000
1301.000000 1899.000000 904.000000
1838.000000 1338.000000 1047.000000
456.000000 578.000000 954.000000
1350.000000 1523.000000 1006.000000
1453.000000 230.000000 847.000000
1740.000000 1481.000000 1004.000000
1178.000000 1321.000000 1058.000000
668.000000 161.000000 990.000000
432.000000 275.000000 896.000000
1271.000000 1763.000000 827.000000
1448.000000 1689.000000 990.000000
1617.000000 1498.000000 1049.000000
337.000000 938.000000 1029.000000
567.000000 1640.000000 852.000000
237.000000 1927.000000 1064.000000
1464.000000 140.000000 828.000000
563.000000 314.000000 969.000000
1382.000000 1837.000000 909.000000
1614.000000 1590.000000 1059.000000
1678.000000 248.000000 828.000000
590.000000 741.000000 940.000000
1880.000000 937.000000 825.000000
1712.000000 935.000000 1057.000000
1426.000000 857.000000 899.000000
452.000000 1357.000000 919.000000
669.000000 1779.000000 860.000000
244.000000 1086.000000 1084.000000
1478.000000 1680.000000 828.000000
312.000000 1041.000000 947.000000
550.000000 1320.000000 841.000000
163.000000 1564.000000 1161.000000
1210.000000 119.000000 830.000000
646.000000 281.000000 916.000000
514.000000 1572.000000 921.000000
1578.000000 1337.000000 949.000000
1611.000000 847.000000 1031.000000
1886.000000 1148.000000 939.000000
608.000000 1218.000000 951.000000
1804.000000 1105.000000 824.000000
1916.000000 510.000000 989.000000
1002.000000 7.000000 929.000000
607.000000 1715.000000 917.000000
1336.000000 1621.000000 907.000000
1601.000000 184.000000 996.000000
1783.000000 1230.000000 1016.000000
835.000000 126.000000 993.000000
278.000000 1631.000000 1172.000000
1814.000000 361.000000 828.000000
1924.000000 1066.000000 883.000000
1073.000000 140.000000 982.000000
560.000000 1082.000000 908.000000
167.000000 1714.000000 1101.000000
1667.000000 1318.000000 825.000000
82.000000 1349.000000 1104.000000
1135.000000 1195.000000 1052.000000
1700.000000 1277.000000 997.000000
178.000000 1517.000000 1061.000000
323.000000 1734.000000 1169.000000
1074.000000 1838.000000 967.000000
1225.000000 1420.000000 1052.000000
1592.000000 1622.000000 926.000000
737.000000 1726.000000 984.000000
407.000000 453.000000 873.000000
1659.000000 1458.000000 986.000000
996.000000 862.000000 922.000000
703.000000 1005.000000 852.000000
493.000000 864.000000 1020.000000
870.000000 1897.000000 981.000000
487.000000 666.000000 854.000000
1592.000000 901.000000 932.000000
1303.000000 1415.000000 1003.000000
624.000000 1048.000000 952.000000
977.000000 992.000000 881.000000
1836.000000 1070.000000 1022.000000
885.000000 1959.000000 864.000000
1984.000000 626.000000 864.000000
450.000000 921.000000 902.000000
1851.000000 439.000000 827.000000
1355.000000 1679.000000 828.000000
1928.000000 1047.000000 1046.000000
483.000000 1499.000000 872.000000
1621.000000 177.000000 832.000000
1962.000000 902.000000 853.000000
1350.000000 913.000000 943.000000
1108.000000 1066.000000 999.000000
314.000000 1901.000000 1140.000000
1132.000000 873.000000 1020.000000
1656.000000 1480.000000 831.000000
1226.000000 929.000000 929.000000
527.000000 1235.000000 841.000000
464.000000 1277.000000 938.000000
546.000000 1453.000000 836.000000
987.000000 1962.000000 836.000000
1824.000000 1263.000000 1094.000000
713.000000 1832.000000 922.000000
710.000000 68.000000 928.000000
1236.000000 1726.000000 948.000000
902.000000 1011.000000 946.000000
1834.000000 978.000000 999.000000
1367.000000 1773.000000 987.000000
1735.000000 1357.000000 1008.000000
516.000000 539.000000 839.000000
760.000000 226.000000 873.000000
973.000000 81.000000 994.000000
433.000000 348.000000 968.000000
1087.000000 181.000000 899.000000
476.000000 216.000000 930.000000
392.000000 1055.000000 975.000000
550.000000 433.000000 932.000000
1740.000000 1376.000000 1086.000000
1685.000000 892.000000 950.000000
976.000000 1837.000000 957.000000
1094.000000 806.000000 997.000000
666.000000 1127.000000 962.000000
548.000000 863.000000 948.000000
278.000000 980.000000 995.000000
1502.000000 1449.000000 850.000000
1034.000000 1964.000000 974.000000
1176.000000 1934.000000 836.000000
1158.000000 1958.000000 954.000000
1772.000000 891.000000 903.000000
1762.000000 1271.000000 826.000000
747.000000 1100.000000 918.000000
779.000000 1765.000000 830.000000
986.000000 175.000000 857.000000
1796.000000 756.000000 918.000000
1611.000000 1408.000000 825.000000
368.000000 885.000000 957.000000
734.000000 1621.000000 873.000000
553.000000 594.000000 978.000000
1084.000000 1831.000000 844.000000
1702.000000 392.000000 844.000000
1360.000000 179.000000 982.000000
459.000000 939.000000 1029.000000
498.000000 733.000000 997.000000
1266.000000 1784.000000 991.000000
1057.000000 681.000000 934.000000
780.000000 982.000000 849.000000
454.000000 653.000000 923.000000
535.000000 227.000000 984.000000
794.000000 1892.000000 855.000000
1759.000000 250.000000 838.000000
1776.000000 1033.000000 831.000000
1048.000000 951.000000 961.000000
93.000000 1389.000000 1005.000000
681.000000 1081.000000 846.000000
681.000000 1562.000000 937.000000
886.000000 1761.000000 924.000000
673.000000 995.000000 923.000000
1168.000000 56.000000 989.000000
767.000000 183.000000 980.000000
1863.000000 644.000000 997.000000
483.000000 1412.000000 962.000000
1667.000000 153.000000 943.000000
1624.000000 1262.000000 854.000000
653.000000 1699.000000 977.000000
1467.000000 1758.000000 878.000000
612.000000 1582.000000 833.000000
190.000000 1873.000000 1089.000000
975.000000 563.000000 914.000000
1723.000000 1166.000000 829.000000
1728.000000 1444.000000 879.000000
1739.000000 1487.000000 1079.000000
1098.000000 69.000000 830.000000
146.000000 1139.000000 990.000000
1359.000000 1447.000000 1043.000000
105.000000 1522.000000 1045.000000
1423.000000 1543.000000 1001.000000
443.000000 394.000000 839.000000
489.000000 475.000000 983.000000
520.000000 1160.000000 952.000000
1490.000000 828.000000 1009.000000
907.000000 941.000000 851.000000
1783.000000 870.000000 1020.000000
633.000000 1472.000000 918.000000
565.000000 1574.000000 975.000000
1441.000000 1523.000000 851.000000
1955.000000 792.000000 834.000000
802.000000 1687.000000 890.000000
463.000000 797.000000 878.000000
1244.000000 30.000000 845.000000
756.000000 1000.000000 970.000000
1304.000000 149.000000 832.000000
361.000000 1052.000000 1053.000000
1373.000000 95.000000 830.000000
836.000000 1051.000000 881.000000
768.000000 1882.000000 924.000000
284.000000 1156.000000 1009.000000
439.000000 515.000000 851.000000
1837.000000 644.000000 834.000000
120.000000 1411.000000 1097.000000
517.000000 390.000000 841.000000
1972.000000 894.000000 927.000000
413.000000 417.000000 953.000000
1386.000000 1536.000000 1069.000000
811.000000 95.000000 832.000000
1144.000000 834.000000 885.000000
1664.000000 280.000000 999.000000
1143.000000 1846.000000 987.000000
1343.000000 1769.000000 824.000000
1201.000000 1288.000000 998.000000
1518.000000 1594.000000 1042.000000
1461.000000 1607.000000 995.000000
852.000000 201.000000 873.000000
1836.000000 880.000000 828.000000
1765.000000 1099.000000 993.000000
673.000000 1631.000000 834.000000
599.000000 151.000000 972.000000
1375.000000 1689.000000 993.000000
59.000000 1250.000000 1008.000000
295.000000 1777.000000 1072.000000
1510.000000 73.000000 928.000000
1049.000000 1993.000000 866.000000
275.000000 1099.000000 964.000000
1150.000000 1978.000000 885.000000
560.000000 694.000000 985.000000
1872.000000 1006.000000 1100.000000
1299.000000 811.000000 964.000000
205.000000 1236.000000 1066.000000
1902.000000 564.000000 827.000000
183.000000 1151.000000 1095.000000
1576.000000 313.000000 907.000000
1733.000000 1346.000000 828.000000
327.000000 1900.000000 1055.000000
1123.000000 1888.000000 824.000000
561.000000 1492.000000 980.000000
1389.000000 225.000000 875.000000
82.000000 1213.000000 1078.000000
1306.000000 48.000000 975.000000
1268.000000 1891.000000 965.000000
1549.000000 263.000000 840.000000
212.000000 1825.000000 1161.000000
978.000000 1843.000000 845.000000
1826.000000 1255.000000 848.000000
1500.000000 1467.000000 965.000000
1906.000000 402.000000 956.000000
529.000000 280.000000 834.000000
1938.000000 1018.000000 931.000000
1850.000000 527.000000 1000.000000
1395.000000 1808.000000 847.000000
1491.000000 1504.000000 1053.000000
1102.000000 936.000000 1012.000000
1645.000000 1559.000000 915.000000
1760.000000 976.000000 1026.000000
119.000000 1155.000000 1070.000000
1928.000000 436.000000 859.000000
111.000000 1271.000000 1102.000000
263.000000 1698.000000 1178.000000
1563.000000 1519.000000 1012.000000
229.000000 1581.000000 1170.000000
1295.000000 1669.000000 936.000000
1176.000000 1362.000000 1003.000000
204.000000 1657.000000 1085.000000
587.000000 561.000000 927.000000
1557.000000 816.000000 1002.000000
8.000000 1430.000000 1058.000000
1801.000000 1375.000000 1003.000000
490.000000 1353.000000 841.000000
1232.000000 1819.000000 825.000000
233.000000 1030.000000 1045.000000
1504.000000 151.000000 998.000000
1871.000000 1190.000000 1000.000000
551.000000 641.000000 848.000000
1176.000000 1250.000000 1049.000000
310.000000 1095.000000 1067.000000
1357.000000 871.000000 890.000000
735.000000 150.000000 832.000000
1667.000000 1524.000000 1000.000000
573.000000 772.000000 882.000000
1662.000000 887.000000 1051.000000
503.000000 743.000000 861.000000
470.000000 1229.000000 884.000000
1899.000000 999.000000 986.000000
1667.000000 334.000000 836.000000
1940.000000 694.000000 829.000000
1598.000000 1389.000000 989.000000
323.000000 1716.000000 1085.000000
231.000000 1798.000000 1070.000000
868.000000 23.000000 916.000000
557.000000 1290.000000 971.000000
997.000000 907.000000 972.000000
158.000000 1298.000000 1007.000000
509.000000 889.000000 898.000000
1547.000000 1398.000000 843.000000
1069.000000 3.000000 927.000000
1234.000000 864.000000 875.000000
1823.000000 1119.000000 1066.000000
835.000000 1799.000000 984.000000
802.000000 931.000000 925.000000
285.000000 1577.000000 1133.000000
860.000000 1904.000000 834.000000
374.000000 1817.000000 1130.000000
1053.000000 159.000000 845.000000
530.000000 168.000000 868.000000
1711.000000 1420.000000 1004.000000
1168.000000 1206.000000 995.000000
697.000000 253.000000 882.000000
1565.000000 1582.000000 828.000000
1671.000000 1497.000000 1089.000000
1936.000000 791.000000 991.000000
1006.000000 139.000000 984.000000
1352.000000 37.000000 856.000000
1189.000000 885.000000 984.000000
345.000000 1828.000000 1060.000000
1728.000000 263.000000 994.000000
643.000000 1194.000000 900.000000
1781.000000 564.000000 928.000000
1042.000000 915.000000 858.000000
1107.000000 85.000000 996.000000
153.000000 1628.000000 1139.000000
1386.000000 56.000000 968.000000
1125.000000 4.000000 875.000000
579.000000 128.000000 900.000000
23.000000 1337.000000 1075.000000
1860.000000 1199.000000 858.000000
464.000000 1449.000000 910.000000
1853.000000 943.000000 1088.000000
1571.000000 135.000000 836.000000
122.000000 1243.000000 992.000000
888.000000 86.000000 992.000000
1797.000000 631.000000 937.000000
1763.000000 1389.000000 884.000000
1965.000000 565.000000 849.000000
220.000000 1569.000000 1078.000000
1612.000000 242.000000 828.000000
1040.000000 1889.000000 989.000000
1538.000000 272.000000 961.000000
563.000000 215.000000 834.000000
1093.000000 837.000000 927.000000
391.000000 947.000000 915.000000
697.000000 1727.000000 832.000000
1300.000000 1481.000000 999.000000
1854.000000 731.000000 993.000000
1764.000000 434.000000 987.000000
1889.000000 1201.000000 1069.000000
1111.000000 1164.000000 1000.000000
912.000000 941.000000 971.000000
1461.000000 807.000000 921.000000
1122.000000 171.000000 953.000000
1007.000000 42.000000 836.000000
365.000000 1007.000000 932.000000
1820.000000 1295.000000 907.000000
141.000000 1376.000000 1046.000000
1643.000000 343.000000 961.000000
971.000000 1971.000000 963.000000
1884.000000 1141.000000 1092.000000
31.000000 1307.000000 1018.000000
181.000000 1085.000000 991.000000
1793.000000 1340.000000 1093.000000
1696.000000 945.000000 993.000000
1114.000000 915.000000 865.000000
627.000000 210.000000 833.000000
267.000000 1941.000000 1119.000000
574.000000 805.000000 937.000000
1297.000000 18.000000 883.000000
1574.000000 840.000000 924.000000
238.000000 1202.000000 1013.000000
1738.000000 863.000000 972.000000
32.000000 1490.000000 1095.000000
453.000000 991.000000 992.000000
1286.000000 918.000000 949.000000
1839.000000 292.000000 933.000000
727.000000 1789.000000 974.000000
430.000000 542.000000 908.000000
1640.000000 1291.000000 981.000000
1117.000000 1109.000000 1045.000000
1875.000000 1116.000000 1000.000000
1827.000000 1225.000000 970.000000
1505.000000 1622.000000 825.000000
1730.000000 460.000000 879.000000
1653.000000 1207.000000 946.000000
1708.000000 1459.000000 946.000000
110.000000 1589.000000 1114.000000
578.000000 1364.000000 956.000000
1201.000000 172.000000 961.000000
1573.000000 1589.000000 1011.000000
1720.000000 187.000000 939.000000
547.000000 372.000000 950.000000
957.000000 80.000000 831.000000
1159.000000 1048.000000 1031.000000
1228.000000 1834.000000 992.000000
709.000000 1670.000000 979.000000
928.000000 1871.000000 988.000000
941.000000 1986.000000 875.000000
399.000000 938.000000 1047.000000
1185.000000 4.000000 893.000000
506.000000 336.000000 985.000000
1480.000000 250.000000 953.000000
421.000000 324.000000 858.000000
1225.000000 827.000000 968.000000
1974.000000 603.000000 956.000000
843.000000 987.000000 848.000000
602.000000 314.000000 882.000000
542.000000 1391.000000 838.000000
909.000000 1841.000000 831.000000
1300.000000 835.000000 885.000000
1178.000000 169.000000 849.000000
1909.000000 913.000000 993.000000
1755.000000 1161.000000 997.000000
1870.000000 326.000000 890.000000
1587.000000 1302.000000 897.000000
1422.000000 43.000000 919.000000
497.000000 541.000000 983.000000
404.000000 838.000000 975.000000
83.000000 1490.000000 1131.000000
1249.000000 1445.000000 1000.000000
1288.000000 118.000000 997.000000
1687.000000 392.000000 952.000000
687.000000 105.000000 972.000000
184.000000 1755.000000 1144.000000
355.000000 990.000000 1061.000000
627.000000 107.000000 866.000000
549.000000 1177.000000 842.000000
812.000000 1881.000000 968.000000
1863.000000 799.000000 827.000000
1977.000000 820.000000 951.000000
1583.000000 243.000000 995.000000
461.000000 703.000000 958.000000
1227.000000 1358.000000 1059.000000
1947.000000 656.000000 987.000000
1788.000000 494.000000 837.000000
892.000000 185.000000 951.000000
1416.000000 1681.000000 824.000000
672.000000 221.000000 979.000000
1959.000000 508.000000 944.000000
1408.000000 853.000000 1007.000000
1612.000000 132.000000 959.000000
1435.000000 1525.000000 944.000000
1838.000000 1293.000000 1003.000000
1756.000000 950.000000 918.000000
1912.000000 1023.000000 838.000000
1745.000000 883.000000 1067.000000
1354.000000 1620.000000 849.000000
954.000000 178.000000 948.000000
535.000000 1121.000000 867.000000
1556.000000 1667.000000 906.000000
