ply
format ascii 1.0
element vertex 770
property float x
property float y
property float z
end_header
996.000000 895.000000 209.000000
1001.000000 987.000000 2001.000000
1001.000000 1318.000000 1086.000000
1378.000000 669.000000 1292.000000
623.000000 669.000000 1288.000000
1064.000000 796.000000 799.000000
870.000000 1060.000000 1509.000000
1001.000000 784.000000 1200.000000
1002.000000 1196.000000 1.000000
1000.000000 1045.000000 543.000000
1111.000000 867.000000 1685.000000
873.000000 1016.000000 981.000000
1114.000000 1079.000000 1290.000000
1179.000000 830.000000 1414.000000
1139.000000 962.000000 1038.000000
822.000000 812.000000 1407.000000
878.000000 974.000000 1762.000000
849.000000 1024.000000 1246.000000
1057.000000 1058.000000 799.000000
1120.000000 1067.000000 1538.000000
951.000000 811.000000 988.000000
912.000000 825.000000 1606.000000
1078.000000 1041.000000 1807.000000
1001.000000 1104.000000 189.000000
930.000000 925.000000 700.000000
1040.000000 1123.000000 1109.000000
1013.000000 914.000000 401.000000
1144.000000 906.000000 1220.000000
979.000000 1090.000000 1658.000000
1001.000000 788.000000 1448.000000
1011.000000 873.000000 1839.000000
871.000000 889.000000 1129.000000
1003.000000 763.000000 87.000000
953.000000 1115.000000 1360.000000
902.000000 760.000000 823.000000
1003.000000 1112.000000 946.000000
1246.000000 765.000000 1278.000000
1011.000000 883.000000 563.000000
1103.000000 928.000000 884.000000
907.000000 916.000000 860.000000
1165.000000 987.000000 1409.000000
1083.000000 974.000000 669.000000
750.000000 760.000000 1278.000000
836.000000 966.000000 1391.000000
1081.000000 823.000000 1073.000000
1154.000000 911.000000 1543.000000
885.000000 851.000000 1275.000000
895.000000 1082.000000 1114.000000
845.000000 958.000000 1615.000000
1143.000000 1012.000000 1676.000000
949.000000 1034.000000 1874.000000
1070.000000 806.000000 1324.000000
1000.000000 1013.000000 299.000000
1144.000000 1036.000000 1158.000000
923.000000 1055.000000 844.000000
997.000000 1116.000000 1495.000000
1049.000000 806.000000 1577.000000
968.000000 1130.000000 1225.000000
926.000000 852.000000 1736.000000
977.000000 1048.000000 695.000000
849.000000 897.000000 1501.000000
1111.000000 1043.000000 941.000000
1092.000000 1091.000000 1414.000000
1067.000000 828.000000 948.000000
1068.000000 961.000000 1902.000000
1002.000000 994.000000 140.000000
1006.000000 1226.000000 1163.000000
1107.000000 927.000000 1788.000000
1036.000000 873.000000 713.000000
947.000000 953.000000 491.000000
1000.000000 1210.000000 1040.000000
880.000000 903.000000 1012.000000
1262.000000 749.000000 1392.000000
1001.000000 1106.000000 73.000000
944.000000 804.000000 1102.000000
958.000000 793.000000 1342.000000
947.000000 1067.000000 1765.000000
1150.000000 904.000000 1333.000000
693.000000 715.000000 1364.000000
1059.000000 960.000000 497.000000
932.000000 977.000000 601.000000
956.000000 931.000000 1916.000000
879.000000 1045.000000 1675.000000
1090.000000 947.000000 776.000000
986.000000 807.000000 877.000000
1112.000000 1068.000000 1048.000000
1013.000000 821.000000 1679.000000
856.000000 986.000000 1085.000000
1098.000000 820.000000 1483.000000
960.000000 861.000000 786.000000
914.000000 814.000000 1501.000000
868.000000 1054.000000 1345.000000
1094.000000 826.000000 1177.000000
930.000000 1097.000000 1018.000000
1078.000000 1081.000000 1631.000000
1002.000000 796.000000 184.000000
1135.000000 899.000000 1118.000000
1161.000000 989.000000 1278.000000
1067.000000 1111.000000 1206.000000
909.000000 1006.000000 757.000000
1165.000000 825.000000 1274.000000
852.000000 927.000000 1219.000000
1002.000000 916.000000 1750.000000
990.000000 916.000000 306.000000
938.000000 1095.000000 1569.000000
1029.000000 1125.000000 1300.000000
926.000000 917.000000 1823.000000
1048.000000 1076.000000 1723.000000
910.000000 824.000000 1188.000000
1158.000000 995.000000 1584.000000
860.000000 882.000000 1359.000000
875.000000 886.000000 1665.000000
1116.000000 902.000000 972.000000
805.000000 822.000000 1317.000000
922.000000 1099.000000 1445.000000
1003.000000 998.000000 435.000000
1061.000000 991.000000 582.000000
1110.000000 1013.000000 856.000000
1304.000000 710.000000 1323.000000
1158.000000 909.000000 1452.000000
921.000000 1073.000000 932.000000
836.000000 983.000000 1480.000000
904.000000 1090.000000 1272.000000
840.000000 954.000000 1303.000000
910.000000 869.000000 935.000000
1003.000000 1092.000000 860.000000
885.000000 994.000000 895.000000
1060.000000 850.000000 1755.000000
980.000000 876.000000 645.000000
1166.000000 985.000000 1497.000000
910.000000 818.000000 1411.000000
998.000000 873.000000 477.000000
1062.000000 854.000000 864.000000
1120.000000 852.000000 1597.000000
1151.000000 930.000000 1641.000000
1035.000000 1039.000000 1882.000000
1042.000000 1114.000000 1023.000000
765.000000 762.000000 1366.000000
862.000000 1038.000000 1591.000000
975.000000 1068.000000 778.000000
962.000000 1126.000000 1141.000000
991.000000 978.000000 222.000000
855.000000 1024.000000 1160.000000
1002.000000 862.000000 132.000000
1007.000000 792.000000 1048.000000
1213.000000 809.000000 1341.000000
1057.000000 1035.000000 719.000000
861.000000 1043.000000 1427.000000
1022.000000 1103.000000 1574.000000
946.000000 797.000000 1260.000000
1098.000000 821.000000 1400.000000
860.000000 884.000000 1582.000000
1015.000000 1121.000000 1415.000000
1138.000000 1047.000000 1361.000000
1052.000000 912.000000 627.000000
1126.000000 998.000000 1754.000000
971.000000 799.000000 1557.000000
917.000000 929.000000 781.000000
1030.000000 792.000000 1126.000000
1008.000000 1035.000000 623.000000
905.000000 1093.000000 1192.000000
976.000000 973.000000 363.000000
690.000000 709.000000 1274.000000
1063.000000 801.000000 1246.000000
1059.000000 876.000000 789.000000
1137.000000 1049.000000 1462.000000
1152.000000 959.000000 1164.000000
1073.000000 1101.000000 1488.000000
1004.000000 1062.000000 1816.000000
923.000000 997.000000 676.000000
897.000000 852.000000 1066.000000
858.000000 956.000000 1690.000000
1134.000000 933.000000 1715.000000
902.000000 991.000000 1832.000000
979.000000 1130.000000 1065.000000
1119.000000 883.000000 1046.000000
957.000000 1002.000000 1942.000000
877.000000 1049.000000 1049.000000
883.000000 940.000000 947.000000
1125.000000 970.000000 942.000000
1070.000000 1071.000000 884.000000
1103.000000 1085.000000 1121.000000
989.000000 843.000000 1773.000000
1141.000000 1044.000000 1231.000000
1022.000000 790.000000 1377.000000
1143.000000 1015.000000 1088.000000
851.000000 877.000000 1431.000000
1008.000000 1049.000000 236.000000
1019.000000 937.000000 1951.000000
1018.000000 1156.000000 1176.000000
1002.000000 1178.000000 71.000000
897.000000 983.000000 824.000000
1093.000000 977.000000 1837.000000
953.000000 924.000000 556.000000
1010.000000 786.000000 1291.000000
851.000000 953.000000 1153.000000
997.000000 1064.000000 130.000000
943.000000 828.000000 1671.000000
993.000000 1185.000000 1107.000000
1078.000000 1104.000000 1346.000000
1037.000000 795.000000 1508.000000
840.000000 985.000000 1550.000000
1073.000000 826.000000 1642.000000
1040.000000 929.000000 1807.000000
887.000000 910.000000 1736.000000
1002.000000 1144.000000 132.000000
1055.000000 785.000000 867.000000
1038.000000 1008.000000 1944.000000
1150.000000 837.000000 1351.000000
941.000000 856.000000 854.000000
1003.000000 801.000000 944.000000
1038.000000 951.000000 343.000000
1002.000000 859.000000 267.000000
1066.000000 1090.000000 962.000000
900.000000 829.000000 1339.000000
968.000000 871.000000 719.000000
1131.000000 1020.000000 1003.000000
1006.000000 1251.000000 1097.000000
961.000000 1122.000000 1292.000000
958.000000 948.000000 423.000000
1165.000000 969.000000 1344.000000
891.000000 1037.000000 1742.000000
1013.000000 834.000000 820.000000
917.000000 1077.000000 1630.000000
954.000000 801.000000 817.000000
1131.000000 1053.000000 1602.000000
1109.000000 1051.000000 1718.000000
1074.000000 927.000000 715.000000
1114.000000 845.000000 1237.000000
984.000000 808.000000 1621.000000
956.000000 995.000000 541.000000
1058.000000 813.000000 1012.000000
1026.000000 912.000000 1890.000000
866.000000 966.000000 1022.000000
932.000000 1074.000000 1700.000000
1054.000000 932.000000 556.000000
866.000000 923.000000 1074.000000
1092.000000 1012.000000 770.000000
1126.000000 853.000000 1531.000000
1163.000000 926.000000 1391.000000
941.000000 925.000000 636.000000
1048.000000 954.000000 435.000000
923.000000 1094.000000 1508.000000
1017.000000 1007.000000 496.000000
902.000000 1086.000000 1387.000000
874.000000 875.000000 1191.000000
985.000000 931.000000 1838.000000
1112.000000 845.000000 1300.000000
1090.000000 877.000000 917.000000
1000.000000 936.000000 162.000000
925.000000 978.000000 1890.000000
1019.000000 960.000000 274.000000
941.000000 922.000000 1763.000000
948.000000 822.000000 924.000000
1132.000000 854.000000 1445.000000
1155.000000 928.000000 1276.000000
890.000000 840.000000 1551.000000
1088.000000 914.000000 827.000000
907.000000 849.000000 1005.000000
1147.000000 956.000000 1101.000000
984.000000 1121.000000 1005.000000
1000.000000 1275.000000 1042.000000
845.000000 1014.000000 1306.000000
988.000000 1081.000000 1722.000000
1115.000000 1080.000000 1187.000000
929.000000 1043.000000 1818.000000
838.000000 934.000000 1445.000000
956.000000 794.000000 1160.000000
901.000000 837.000000 1129.000000
1107.000000 846.000000 1122.000000
1213.000000 783.000000 1398.000000
856.000000 904.000000 1274.000000
1157.000000 988.000000 1216.000000
1059.000000 801.000000 1442.000000
1270.000000 758.000000 1333.000000
963.000000 793.000000 1402.000000
1101.000000 890.000000 1740.000000
833.000000 825.000000 1264.000000
1126.000000 875.000000 1171.000000
1011.000000 1126.000000 1356.000000
1013.000000 850.000000 762.000000
1051.000000 1023.000000 662.000000
1025.000000 1132.000000 1242.000000
846.000000 983.000000 1203.000000
1098.000000 760.000000 830.000000
936.000000 814.000000 1045.000000
969.000000 795.000000 1497.000000
1098.000000 854.000000 1000.000000
874.000000 850.000000 1477.000000
1033.000000 909.000000 507.000000
1079.000000 1088.000000 1573.000000
996.000000 804.000000 127.000000
995.000000 1035.000000 180.000000
723.000000 750.000000 1328.000000
909.000000 1093.000000 1330.000000
1330.000000 695.000000 1274.000000
1070.000000 926.000000 1856.000000
959.000000 871.000000 1813.000000
654.000000 688.000000 1332.000000
1073.000000 1108.000000 1263.000000
966.000000 1094.000000 904.000000
1064.000000 836.000000 1699.000000
844.000000 928.000000 1550.000000
854.000000 999.000000 1653.000000
955.000000 1018.000000 633.000000
1035.000000 1086.000000 1669.000000
930.000000 1104.000000 1075.000000
975.000000 831.000000 1719.000000
1146.000000 1036.000000 1306.000000
1074.000000 1103.000000 1069.000000
1091.000000 979.000000 725.000000
1012.000000 1062.000000 737.000000
863.000000 1038.000000 1104.000000
1104.000000 967.000000 826.000000
1153.000000 1023.000000 1535.000000
901.000000 1066.000000 983.000000
841.000000 829.000000 1358.000000
994.000000 840.000000 216.000000
1054.000000 876.000000 1803.000000
1087.000000 815.000000 1538.000000
868.000000 1054.000000 1204.000000
1027.000000 977.000000 390.000000
1057.000000 919.000000 1756.000000
1041.000000 1066.000000 1776.000000
1104.000000 1066.000000 993.000000
891.000000 1070.000000 1558.000000
846.000000 1018.000000 1379.000000
946.000000 1042.000000 739.000000
1114.000000 1056.000000 1664.000000
1288.000000 729.000000 1274.000000
929.000000 1043.000000 791.000000
1049.000000 795.000000 1178.000000
951.000000 1100.000000 968.000000
1148.000000 899.000000 1595.000000
978.000000 1098.000000 1605.000000
1155.000000 873.000000 1391.000000
941.000000 802.000000 1452.000000
971.000000 908.000000 507.000000
962.000000 1114.000000 1413.000000
996.000000 1029.000000 1917.000000
841.000000 931.000000 1351.000000
1078.000000 1008.000000 1879.000000
969.000000 893.000000 596.000000
929.000000 892.000000 817.000000
1037.000000 816.000000 906.000000
975.000000 1020.000000 584.000000
1068.000000 1110.000000 1152.000000
865.000000 1006.000000 1708.000000
973.000000 958.000000 1967.000000
847.000000 854.000000 1312.000000
940.000000 782.000000 864.000000
903.000000 1044.000000 892.000000
1010.000000 911.000000 257.000000
1205.000000 795.000000 1291.000000
1001.000000 796.000000 996.000000
1030.000000 878.000000 660.000000
1023.000000 912.000000 453.000000
843.000000 969.000000 1253.000000
893.000000 929.000000 1784.000000
979.000000 967.000000 311.000000
779.000000 776.000000 1318.000000
915.000000 958.000000 738.000000
789.000000 808.000000 1365.000000
1154.000000 982.000000 1634.000000
1146.000000 1036.000000 1411.000000
1129.000000 949.000000 989.000000
985.000000 922.000000 357.000000
1135.000000 880.000000 1270.000000
868.000000 1055.000000 1285.000000
1164.000000 962.000000 1543.000000
1149.000000 884.000000 1496.000000
1000.000000 1150.000000 28.000000
1030.000000 1097.000000 905.000000
1120.000000 1006.000000 906.000000
1133.000000 881.000000 1641.000000
1005.000000 1159.000000 1032.000000
893.000000 1017.000000 1789.000000
1168.000000 959.000000 1452.000000
981.000000 1107.000000 1544.000000
1039.000000 1105.000000 1526.000000
1163.000000 933.000000 1498.000000
1349.000000 688.000000 1332.000000
1072.000000 959.000000 620.000000
966.000000 1077.000000 828.000000
779.000000 783.000000 1410.000000
877.000000 858.000000 1622.000000
998.000000 901.000000 1799.000000
873.000000 848.000000 1394.000000
1109.000000 1083.000000 1238.000000
973.000000 993.000000 475.000000
840.000000 996.000000 1431.000000
908.000000 825.000000 1238.000000
842.000000 914.000000 1398.000000
1013.000000 1079.000000 810.000000
934.000000 932.000000 1870.000000
947.000000 797.000000 1209.000000
938.000000 902.000000 744.000000
1033.000000 1007.000000 544.000000
838.000000 982.000000 1344.000000
854.000000 910.000000 1624.000000
1298.000000 722.000000 1371.000000
897.000000 910.000000 910.000000
885.000000 1071.000000 1463.000000
1033.000000 1113.000000 1461.000000
991.000000 790.000000 1095.000000
905.000000 855.000000 1689.000000
887.000000 1036.000000 938.000000
974.000000 915.000000 458.000000
916.000000 816.000000 1294.000000
853.000000 1029.000000 1475.000000
1158.000000 947.000000 1594.000000
793.000000 797.000000 1276.000000
1024.000000 832.000000 1727.000000
1016.000000 878.000000 612.000000
1074.000000 812.000000 1134.000000
1110.000000 1004.000000 1800.000000
1025.000000 1095.000000 1622.000000
1055.000000 1111.000000 1389.000000
1146.000000 963.000000 1678.000000
1161.000000 1007.000000 1454.000000
1082.000000 1050.000000 842.000000
877.000000 1067.000000 1157.000000
1087.000000 1053.000000 1761.000000
1135.000000 923.000000 1068.000000
877.000000 988.000000 942.000000
1032.000000 809.000000 1622.000000
1150.000000 995.000000 1131.000000
855.000000 1031.000000 1544.000000
1103.000000 829.000000 1353.000000
927.000000 1107.000000 1233.000000
946.000000 1117.000000 1185.000000
993.000000 1048.000000 1860.000000
994.000000 1072.000000 1769.000000
839.000000 943.000000 1505.000000
1113.000000 924.000000 930.000000
990.000000 786.000000 1247.000000
871.000000 877.000000 1238.000000
727.000000 740.000000 1385.000000
980.000000 910.000000 1880.000000
921.000000 1103.000000 1147.000000
965.000000 1111.000000 1461.000000
931.000000 878.000000 1776.000000
1042.000000 796.000000 1079.000000
1231.000000 768.000000 1357.000000
927.000000 814.000000 1563.000000
1026.000000 1129.000000 1065.000000
1067.000000 926.000000 669.000000
890.000000 897.000000 967.000000
1103.000000 1081.000000 1458.000000
1061.000000 895.000000 746.000000
1012.000000 1006.000000 253.000000
1077.000000 1073.000000 1687.000000
1044.000000 1050.000000 1838.000000
1066.000000 805.000000 1370.000000
895.000000 1018.000000 854.000000
1181.000000 834.000000 1317.000000
894.000000 960.000000 864.000000
1023.000000 1048.000000 691.000000
1007.000000 840.000000 172.000000
1044.000000 1077.000000 846.000000
1161.000000 1008.000000 1368.000000
685.000000 719.000000 1319.000000
921.000000 874.000000 891.000000
1133.000000 1050.000000 1116.000000
1114.000000 972.000000 875.000000
1010.000000 988.000000 337.000000
955.000000 892.000000 681.000000
1108.000000 1081.000000 1371.000000
1010.000000 937.000000 219.000000
863.000000 1006.000000 1043.000000
1081.000000 1091.000000 1023.000000
1180.000000 811.000000 1373.000000
991.000000 1184.000000 1153.000000
1157.000000 947.000000 1235.000000
862.000000 873.000000 1537.000000
923.000000 837.000000 964.000000
854.000000 902.000000 1319.000000
1126.000000 953.000000 1756.000000
861.000000 911.000000 1167.000000
1002.000000 785.000000 1337.000000
1133.000000 908.000000 1677.000000
1015.000000 797.000000 1548.000000
928.000000 811.000000 1370.000000
877.000000 1054.000000 1630.000000
1086.000000 823.000000 1598.000000
1143.000000 916.000000 1176.000000
1017.000000 1155.000000 1130.000000
1000.000000 862.000000 689.000000
1001.000000 1161.000000 1218.000000
925.000000 966.000000 644.000000
1122.000000 870.000000 1340.000000
997.000000 1012.000000 1961.000000
1050.000000 826.000000 768.000000
1128.000000 920.000000 1023.000000
1038.000000 805.000000 973.000000
1062.000000 973.000000 541.000000
901.000000 821.000000 1455.000000
1000.000000 1264.000000 1139.000000
1135.000000 1030.000000 1046.000000
1033.000000 974.000000 1972.000000
950.000000 819.000000 776.000000
1048.000000 1013.000000 619.000000
1084.000000 815.000000 1283.000000
1007.000000 976.000000 180.000000
906.000000 837.000000 1648.000000
846.000000 997.000000 1593.000000
998.000000 892.000000 164.000000
1097.000000 1020.000000 813.000000
1085.000000 892.000000 865.000000
852.000000 992.000000 1130.000000
857.000000 947.000000 1110.000000
967.000000 791.000000 1298.000000
965.000000 931.000000 1799.000000
1023.000000 1022.000000 584.000000
1138.000000 988.000000 1713.000000
1030.000000 1113.000000 981.000000
1109.000000 856.000000 1079.000000
907.000000 940.000000 822.000000
889.000000 1080.000000 1232.000000
1038.000000 984.000000 465.000000
1084.000000 1090.000000 1530.000000
935.000000 1072.000000 882.000000
1239.000000 785.000000 1316.000000
904.000000 971.000000 782.000000
1101.000000 1041.000000 889.000000
969.000000 841.000000 824.000000
1006.000000 1104.000000 116.000000
1140.000000 1025.000000 1635.000000
999.000000 786.000000 1157.000000
981.000000 1143.000000 1106.000000
1082.000000 1071.000000 926.000000
1095.000000 862.000000 957.000000
923.000000 1013.000000 717.000000
1031.000000 910.000000 1847.000000
977.000000 982.000000 405.000000
875.000000 939.000000 989.000000
1003.000000 881.000000 519.000000
935.000000 963.000000 560.000000
1040.000000 903.000000 587.000000
877.000000 884.000000 1087.000000
970.000000 798.000000 1025.000000
871.000000 916.000000 1696.000000
871.000000 1057.000000 1388.000000
904.000000 1082.000000 1048.000000
1036.000000 822.000000 854.000000
1048.000000 1052.000000 758.000000
887.000000 953.000000 907.000000
869.000000 948.000000 1730.000000
1122.000000 1072.000000 1331.000000
1128.000000 1007.000000 963.000000
997.000000 918.000000 1920.000000
1117.000000 1069.000000 1496.000000
1001.000000 1196.000000 1192.000000
1076.000000 1007.000000 694.000000
1019.000000 853.000000 1801.000000
1110.000000 846.000000 1641.000000
722.000000 730.000000 1291.000000
902.000000 951.000000 1820.000000
964.000000 1060.000000 1803.000000
1011.000000 1167.000000 1074.000000
1068.000000 1110.000000 1306.000000
941.000000 936.000000 594.000000
979.000000 1142.000000 1181.000000
1154.000000 999.000000 1176.000000
1048.000000 856.000000 824.000000
1097.000000 844.000000 1041.000000
1127.000000 850.000000 1487.000000
841.000000 1006.000000 1514.000000
988.000000 1131.000000 1262.000000
1103.000000 823.000000 1441.000000
661.000000 685.000000 1291.000000
945.000000 818.000000 1630.000000
1151.000000 1027.000000 1494.000000
987.000000 946.000000 252.000000
1088.000000 818.000000 1218.000000
850.000000 836.000000 1427.000000
1068.000000 844.000000 906.000000
982.000000 1040.000000 655.000000
1163.000000 956.000000 1305.000000
852.000000 939.000000 1653.000000
981.000000 1125.000000 1328.000000
1139.000000 875.000000 1563.000000
1124.000000 1068.000000 1425.000000
1071.000000 1104.000000 1447.000000
1087.000000 1020.000000 1841.000000
1078.000000 917.000000 1816.000000
953.000000 830.000000 884.000000
1009.000000 802.000000 1589.000000
1124.000000 848.000000 1383.000000
1050.000000 793.000000 1284.000000
1028.000000 792.000000 1417.000000
996.000000 1142.000000 92.000000
1152.000000 1027.000000 1267.000000
917.000000 1009.000000 1865.000000
1008.000000 1014.000000 212.000000
986.000000 1013.000000 521.000000
1050.000000 960.000000 1938.000000
1161.000000 999.000000 1317.000000
904.000000 1012.000000 797.000000
1003.000000 1315.000000 1046.000000
1078.000000 890.000000 1774.000000
1008.000000 1219.000000 1122.000000
833.000000 849.000000 1392.000000
1007.000000 1213.000000 1082.000000
1148.000000 858.000000 1312.000000
942.000000 1011.000000 1906.000000
880.000000 1044.000000 1009.000000
1024.000000 937.000000 307.000000
1027.000000 788.000000 1232.000000
887.000000 1074.000000 1422.000000
961.000000 1106.000000 1509.000000
944.000000 803.000000 1528.000000
944.000000 968.000000 1926.000000
919.000000 963.000000 696.000000
950.000000 1026.000000 675.000000
976.000000 892.000000 1842.000000
956.000000 807.000000 1593.000000
1109.000000 964.000000 1802.000000
913.000000 1048.000000 1773.000000
977.000000 894.000000 546.000000
1090.000000 859.000000 1718.000000
928.000000 968.000000 1851.000000
884.000000 862.000000 1155.000000
1079.000000 911.000000 788.000000
883.000000 883.000000 1046.000000
993.000000 1067.000000 203.000000
965.000000 796.000000 1066.000000
1145.000000 933.000000 1135.000000
895.000000 1068.000000 1598.000000
976.000000 926.000000 395.000000
1042.000000 1125.000000 1178.000000
1054.000000 1016.000000 1909.000000
940.000000 1084.000000 1661.000000
939.000000 1111.000000 1113.000000
880.000000 863.000000 1331.000000
914.000000 827.000000 1092.000000
871.000000 977.000000 980.000000
1108.000000 837.000000 1563.000000
1127.000000 871.000000 1211.000000
1139.000000 1045.000000 1564.000000
979.000000 818.000000 1660.000000
1007.000000 1072.000000 167.000000
921.000000 1061.000000 1735.000000
1035.000000 940.000000 381.000000
847.000000 900.000000 1462.000000
929.000000 811.000000 1138.000000
988.000000 983.000000 277.000000
886.000000 839.000000 1512.000000
1043.000000 1118.000000 1336.000000
848.000000 923.000000 1588.000000
960.000000 1050.000000 1840.000000
887.000000 847.000000 1214.000000
1123.000000 1069.000000 1151.000000
898.000000 876.000000 1722.000000
1116.000000 1070.000000 1088.000000
1032.000000 794.000000 1470.000000
994.000000 1111.000000 152.000000
1030.000000 902.000000 1778.000000
927.000000 1106.000000 1299.000000
959.000000 1115.000000 1035.000000
1000.000000 1027.000000 121.000000
1055.000000 900.000000 694.000000
988.000000 1122.000000 1386.000000
1005.000000 1288.000000 1109.000000
1039.000000 792.000000 1342.000000
1101.000000 981.000000 790.000000
1115.000000 887.000000 1008.000000
870.000000 931.000000 1036.000000
953.000000 849.000000 1763.000000
1138.000000 1049.000000 1193.000000
895.000000 1054.000000 1708.000000
1144.000000 980.000000 1072.000000
1001.000000 1074.000000 93.000000
851.000000 1020.000000 1208.000000
966.000000 1085.000000 865.000000
984.000000 789.000000 1371.000000
883.000000 1064.000000 1083.000000
1046.000000 938.000000 469.000000
1003.000000 856.000000 726.000000
1073.000000 1105.000000 1108.000000
1019.000000 1070.000000 774.000000
1060.000000 934.000000 594.000000
1153.000000 880.000000 1428.000000
860.000000 958.000000 1060.000000
890.000000 980.000000 1797.000000
1162.000000 933.000000 1354.000000
967.000000 806.000000 953.000000
954.000000 967.000000 455.000000
1135.000000 983.000000 1007.000000
1127.000000 889.000000 1082.000000
997.000000 1243.000000 1061.000000
977.000000 858.000000 753.000000
1042.000000 929.000000 1919.000000
972.000000 903.000000 1771.000000
885.000000 848.000000 1587.000000
842.000000 958.000000 1577.000000
1025.000000 841.000000 1764.000000
1131.000000 1060.000000 1263.000000
997.000000 1036.000000 269.000000
1072.000000 992.000000 638.000000
945.000000 947.000000 528.000000
959.000000 812.000000 852.000000
1002.000000 1089.000000 1687.000000
933.000000 1106.000000 1390.000000
1073.000000 788.000000 834.000000
938.000000 890.000000 779.000000
1153.000000 944.000000 1198.000000
971.000000 792.000000 1126.000000
1056.000000 1093.000000 1602.000000
1100.000000 1073.000000 1600.000000
999.000000 1121.000000 1449.000000
1010.000000 933.000000 1785.000000
909.000000 1067.000000 1672.000000
1166.000000 963.000000 1381.000000
881.000000 1072.000000 1315.000000
858.000000 1020.000000 1623.000000
1089.000000 840.000000 1672.000000
981.000000 806.000000 915.000000
1083.000000 960.000000 1868.000000
942.000000 1091.000000 1607.000000
1115.000000 954.000000 907.000000
1065.000000 804.000000 1486.000000
1265.000000 741.000000 1301.000000
1144.000000 841.000000 1413.000000
992.000000 843.000000 791.000000
997.000000 1187.000000 36.000000
849.000000 988.000000 1167.000000
1001.000000 768.000000 124.000000
1034.000000 903.000000 543.000000
849.000000 1023.000000 1343.000000
849.000000 948.000000 1189.000000
1005.000000 887.000000 290.000000
1039.000000 1101.000000 940.000000
1057.000000 808.000000 1048.000000
951.000000 1120.000000 1257.000000
1001.000000 793.000000 1514.000000
1083.000000 1015.000000 735.000000
940.000000 837.000000 1706.000000
1052.000000 803.000000 1541.000000
955.000000 985.000000 506.000000
1062.000000 804.000000 1406.000000
1044.000000 990.000000 514.000000
1120.000000 900.000000 1710.000000
1075.000000 830.000000 985.000000
928.000000 809.000000 1328.000000
843.000000 999.000000 1273.000000
1048.000000 824.000000 1669.000000
1008.000000 870.000000 232.000000
1072.000000 882.000000 831.000000
868.000000 1055.000000 1249.000000
1110.000000 1026.000000 1770.000000
1165.000000 934.000000 1426.000000
1130.000000 1023.000000 1710.000000
966.000000 1083.000000 1693.000000
845.000000 938.000000 1271.000000
875.000000 1005.000000 1744.000000
1100.000000 940.000000 849.000000
967.000000 947.000000 339.000000
954.000000 1075.000000 1731.000000
1039.000000 809.000000 821.000000
1019.000000 1076.000000 1744.000000
1015.000000 922.000000 338.000000
897.000000 830.000000 1375.000000
868.000000 877.000000 1295.000000
977.000000 1060.000000 742.000000
1146.000000 901.000000 1297.000000
930.000000 940.000000 668.000000
1060.000000 1100.000000 996.000000
994.000000 907.000000 430.000000
1095.000000 1069.000000 959.000000
