ply
format ascii 1.0
element vertex 806
property float x
property float y
property float z
end_header
758.000000 34.000000 528.000000
962.000000 1966.000000 1106.000000
728.000000 1103.000000 518.000000
1098.000000 585.000000 1114.000000
1262.000000 1298.000000 1032.000000
615.000000 1411.000000 1087.000000
1431.000000 1647.000000 1527.000000
1165.000000 15.000000 960.000000
643.000000 537.000000 773.000000
950.000000 1606.000000 666.000000
1091.000000 924.000000 775.000000
989.000000 1557.000000 1244.000000
687.000000 938.000000 911.000000
717.000000 1724.000000 925.000000
654.000000 1395.000000 724.000000
911.000000 1201.000000 1026.000000
1085.000000 1220.000000 569.000000
1042.000000 326.000000 902.000000
1149.000000 1586.000000 923.000000
824.000000 782.000000 664.000000
775.000000 254.000000 750.000000
921.000000 762.000000 956.000000
1248.000000 1668.000000 1305.000000
1087.000000 1337.000000 820.000000
573.000000 1134.000000 754.000000
948.000000 1853.000000 857.000000
872.000000 1469.000000 1015.000000
874.000000 1370.000000 588.000000
699.000000 11.000000 775.000000
1110.000000 42.000000 1200.000000
935.000000 1705.000000 1054.000000
943.000000 1018.000000 602.000000
682.000000 696.000000 956.000000
713.000000 1629.000000 703.000000
693.000000 1243.000000 931.000000
1200.000000 1462.000000 1192.000000
931.000000 992.000000 929.000000
641.000000 229.000000 565.000000
1096.000000 632.000000 888.000000
676.000000 949.000000 682.000000
781.000000 1929.000000 983.000000
621.000000 1528.000000 898.000000
627.000000 751.000000 752.000000
1040.000000 1129.000000 804.000000
1098.000000 879.000000 997.000000
828.000000 630.000000 818.000000
777.000000 1308.000000 1172.000000
775.000000 420.000000 878.000000
711.000000 408.000000 631.000000
1069.000000 1744.000000 1248.000000
1172.000000 459.000000 976.000000
997.000000 749.000000 761.000000
970.000000 459.000000 1030.000000
1141.000000 202.000000 1017.000000
746.000000 1234.000000 662.000000
1063.000000 1471.000000 1054.000000
1098.000000 1516.000000 752.000000
1042.000000 1693.000000 808.000000
1235.000000 1423.000000 896.000000
855.000000 1697.000000 802.000000
715.000000 1561.000000 1052.000000
623.000000 355.000000 783.000000
1096.000000 143.000000 851.000000
900.000000 1191.000000 576.000000
785.000000 1092.000000 913.000000
841.000000 1837.000000 1126.000000
839.000000 1473.000000 1188.000000
1030.000000 1382.000000 662.000000
1036.000000 1312.000000 983.000000
1040.000000 1861.000000 999.000000
1042.000000 739.000000 1073.000000
765.000000 1485.000000 639.000000
670.000000 533.000000 935.000000
728.000000 126.000000 660.000000
927.000000 1985.000000 948.000000
1161.000000 1536.000000 1330.000000
966.000000 611.000000 980.000000
952.000000 877.000000 678.000000
995.000000 1586.000000 970.000000
1106.000000 790.000000 867.000000
1089.000000 346.000000 1050.000000
1295.000000 1633.000000 1451.000000
779.000000 813.000000 919.000000
816.000000 930.000000 615.000000
1262.000000 1452.000000 1050.000000
637.000000 1376.000000 876.000000
738.000000 659.000000 695.000000
695.000000 1354.000000 584.000000
740.000000 1347.000000 1030.000000
625.000000 1078.000000 625.000000
664.000000 1257.000000 785.000000
1075.000000 1012.000000 896.000000
631.000000 225.000000 713.000000
1046.000000 490.000000 906.000000
1044.000000 1243.000000 709.000000
1077.000000 77.000000 1061.000000
839.000000 1613.000000 993.000000
1182.000000 318.000000 939.000000
625.000000 809.000000 886.000000
1054.000000 1037.000000 693.000000
662.000000 1064.000000 843.000000
771.000000 474.000000 744.000000
1153.000000 1366.000000 1096.000000
1163.000000 1600.000000 1202.000000
828.000000 1781.000000 995.000000
867.000000 768.000000 816.000000
983.000000 1828.000000 1126.000000
958.000000 1726.000000 915.000000
958.000000 885.000000 1015.000000
950.000000 1132.000000 911.000000
1026.000000 1592.000000 1114.000000
913.000000 1339.000000 1046.000000
660.000000 1641.000000 830.000000
952.000000 1481.000000 608.000000
615.000000 651.000000 845.000000
767.000000 248.000000 613.000000
775.000000 1197.000000 1030.000000
674.000000 5.000000 631.000000
699.000000 973.000000 551.000000
1196.000000 24.000000 1096.000000
672.000000 1520.000000 771.000000
814.000000 1849.000000 880.000000
713.000000 1425.000000 1178.000000
964.000000 669.000000 861.000000
625.000000 910.000000 798.000000
633.000000 1633.000000 978.000000
645.000000 100.000000 539.000000
697.000000 821.000000 664.000000
1161.000000 1335.000000 956.000000
1005.000000 1142.000000 635.000000
1050.000000 1230.000000 884.000000
830.000000 1080.000000 594.000000
1126.000000 725.000000 976.000000
816.000000 936.000000 923.000000
608.000000 336.000000 654.000000
773.000000 611.000000 931.000000
1139.000000 579.000000 995.000000
906.000000 1571.000000 1145.000000
939.000000 1284.000000 654.000000
1087.000000 19.000000 863.000000
1091.000000 468.000000 1073.000000
826.000000 1588.000000 674.000000
652.000000 422.000000 882.000000
1124.000000 1156.000000 666.000000
1065.000000 1423.000000 941.000000
791.000000 28.000000 697.000000
1042.000000 163.000000 958.000000
750.000000 161.000000 530.000000
684.000000 1208.000000 561.000000
1188.000000 130.000000 929.000000
978.000000 340.000000 1003.000000
845.000000 1950.000000 1083.000000
1135.000000 1617.000000 808.000000
769.000000 1456.000000 1075.000000
613.000000 1508.000000 1017.000000
592.000000 1232.000000 689.000000
623.000000 443.000000 703.000000
808.000000 365.000000 775.000000
1184.000000 1512.000000 837.000000
670.000000 1312.000000 1122.000000
1165.000000 1497.000000 999.000000
993.000000 1666.000000 1200.000000
736.000000 1728.000000 808.000000
1128.000000 256.000000 855.000000
613.000000 1025.000000 744.000000
894.000000 856.000000 890.000000
989.000000 562.000000 1083.000000
1130.000000 1645.000000 1303.000000
1116.000000 903.000000 886.000000
1122.000000 408.000000 888.000000
851.000000 1183.000000 931.000000
804.000000 527.000000 857.000000
1104.000000 1458.000000 1272.000000
1046.000000 1613.000000 730.000000
1200.000000 1621.000000 1394.000000
654.000000 1403.000000 983.000000
816.000000 710.000000 896.000000
1052.000000 1664.000000 915.000000
950.000000 1684.000000 746.000000
1262.000000 1366.000000 1120.000000
968.000000 1419.000000 995.000000
1050.000000 836.000000 721.000000
689.000000 1171.000000 849.000000
1011.000000 1206.000000 983.000000
835.000000 702.000000 736.000000
670.000000 1164.000000 719.000000
779.000000 334.000000 676.000000
1091.000000 1035.000000 793.000000
1015.000000 1522.000000 684.000000
1050.000000 260.000000 1001.000000
964.000000 1514.000000 1042.000000
818.000000 1744.000000 892.000000
1108.000000 1440.000000 826.000000
738.000000 1645.000000 993.000000
1026.000000 951.000000 966.000000
678.000000 1539.000000 662.000000
835.000000 1288.000000 641.000000
1003.000000 1919.000000 919.000000
822.000000 1286.000000 1059.000000
828.000000 1388.000000 1128.000000
1073.000000 63.000000 958.000000
672.000000 1306.000000 674.000000
843.000000 1946.000000 902.000000
717.000000 352.000000 826.000000
738.000000 572.000000 752.000000
791.000000 52.000000 798.000000
1172.000000 96.000000 1026.000000
693.000000 315.000000 588.000000
1285.000000 1382.000000 976.000000
1036.000000 936.000000 689.000000
997.000000 1767.000000 1001.000000
775.000000 1166.000000 592.000000
1034.000000 1911.000000 1155.000000
888.000000 842.000000 750.000000
1116.000000 671.000000 1061.000000
1056.000000 708.000000 835.000000
654.000000 653.000000 752.000000
1089.000000 1557.000000 1260.000000
999.000000 1956.000000 1013.000000
1077.000000 1522.000000 954.000000
779.000000 1851.000000 1048.000000
678.000000 1487.000000 1108.000000
637.000000 151.000000 627.000000
964.000000 702.000000 1022.000000
1176.000000 1462.000000 1096.000000
781.000000 1391.000000 613.000000
682.000000 1434.000000 639.000000
1227.000000 1578.000000 1272.000000
1085.000000 1395.000000 742.000000
861.000000 1508.000000 629.000000
878.000000 1068.000000 898.000000
625.000000 1442.000000 806.000000
695.000000 507.000000 693.000000
968.000000 1347.000000 586.000000
610.000000 449.000000 798.000000
874.000000 1635.000000 1081.000000
1013.000000 408.000000 943.000000
800.000000 1658.000000 734.000000
1126.000000 1405.000000 1013.000000
793.000000 1524.000000 1011.000000
1026.000000 648.000000 1102.000000
684.000000 283.000000 767.000000
1030.000000 829.000000 1044.000000
1087.000000 1656.000000 1217.000000
1180.000000 36.000000 869.000000
678.000000 729.000000 676.000000
1133.000000 523.000000 919.000000
670.000000 65.000000 703.000000
939.000000 1497.000000 1192.000000
693.000000 790.000000 948.000000
637.000000 844.000000 732.000000
1019.000000 581.000000 909.000000
1046.000000 233.000000 894.000000
915.000000 1892.000000 1141.000000
680.000000 38.000000 477.000000
761.000000 1835.000000 958.000000
721.000000 1025.000000 904.000000
1170.000000 223.000000 931.000000
935.000000 1658.000000 974.000000
754.000000 494.000000 931.000000
849.000000 1989.000000 999.000000
763.000000 1181.000000 904.000000
637.000000 1169.000000 631.000000
972.000000 1269.000000 1038.000000
909.000000 1785.000000 1091.000000
715.000000 188.000000 728.000000
1048.000000 1530.000000 1178.000000
1013.000000 1076.000000 874.000000
937.000000 1730.000000 826.000000
925.000000 1107.000000 600.000000
863.000000 864.000000 656.000000
775.000000 1008.000000 588.000000
1083.000000 1206.000000 783.000000
904.000000 942.000000 633.000000
1104.000000 1111.000000 742.000000
1213.000000 1522.000000 925.000000
1155.000000 1384.000000 880.000000
974.000000 1832.000000 941.000000
625.000000 515.000000 859.000000
756.000000 50.000000 617.000000
810.000000 1695.000000 970.000000
633.000000 1341.000000 793.000000
999.000000 527.000000 978.000000
882.000000 1553.000000 1044.000000
1163.000000 375.000000 1005.000000
650.000000 620.000000 921.000000
898.000000 1787.000000 890.000000
736.000000 899.000000 639.000000
1106.000000 13.000000 1116.000000
1130.000000 811.000000 950.000000
1079.000000 780.000000 783.000000
668.000000 1452.000000 911.000000
1153.000000 289.000000 1022.000000
676.000000 1329.000000 941.000000
637.000000 979.000000 851.000000
1073.000000 1341.000000 909.000000
933.000000 1672.000000 1135.000000
625.000000 722.000000 894.000000
660.000000 1290.000000 865.000000
820.000000 1401.000000 1032.000000
1151.000000 1713.000000 1254.000000
882.000000 1650.000000 705.000000
645.000000 994.000000 615.000000
896.000000 916.000000 952.000000
1223.000000 1543.000000 1176.000000
931.000000 747.000000 872.000000
1165.000000 1518.000000 1246.000000
672.000000 1053.000000 559.000000
744.000000 1269.000000 997.000000
1022.000000 1298.000000 647.000000
754.000000 1310.000000 625.000000
1262.000000 1678.000000 1387.000000
1126.000000 13.000000 1034.000000
960.000000 786.000000 1026.000000
1180.000000 1314.000000 1036.000000
1024.000000 1898.000000 1073.000000
617.000000 1613.000000 896.000000
925.000000 1927.000000 888.000000
1252.000000 1462.000000 968.000000
1038.000000 412.000000 1042.000000
670.000000 174.000000 510.000000
1377.000000 1637.000000 1463.000000
925.000000 1987.000000 1034.000000
1098.000000 782.000000 1030.000000
956.000000 688.000000 941.000000
758.000000 733.000000 656.000000
995.000000 1175.000000 857.000000
861.000000 1004.000000 600.000000
660.000000 1351.000000 1048.000000
1071.000000 1314.000000 740.000000
837.000000 1206.000000 627.000000
1093.000000 854.000000 818.000000
613.000000 256.000000 639.000000
769.000000 414.000000 689.000000
719.000000 866.000000 933.000000
689.000000 1678.000000 763.000000
962.000000 1210.000000 625.000000
752.000000 735.000000 939.000000
814.000000 1016.000000 911.000000
1250.000000 1448.000000 1130.000000
960.000000 811.000000 724.000000
658.000000 19.000000 553.000000
1003.000000 1060.000000 635.000000
623.000000 815.000000 806.000000
635.000000 1565.000000 826.000000
637.000000 887.000000 874.000000
1108.000000 648.000000 966.000000
643.000000 1138.000000 793.000000
773.000000 167.000000 606.000000
1050.000000 1452.000000 699.000000
1100.000000 712.000000 902.000000
637.000000 1580.000000 1040.000000
670.000000 1473.000000 707.000000
991.000000 1354.000000 1034.000000
987.000000 1763.000000 1081.000000
1017.000000 1485.000000 991.000000
615.000000 301.000000 726.000000
1089.000000 143.000000 1019.000000
1106.000000 967.000000 839.000000
789.000000 634.000000 750.000000
789.000000 1411.000000 1192.000000
590.000000 1125.000000 678.000000
680.000000 1598.000000 767.000000
1145.000000 509.000000 1030.000000
769.000000 1475.000000 1151.000000
707.000000 1347.000000 1182.000000
754.000000 1557.000000 668.000000
933.000000 840.000000 956.000000
740.000000 69.000000 740.000000
711.000000 1107.000000 888.000000
1050.000000 523.000000 1112.000000
980.000000 959.000000 637.000000
773.000000 1337.000000 1100.000000
1207.000000 1312.000000 1110.000000
865.000000 1715.000000 1022.000000
672.000000 1132.000000 571.000000
1198.000000 1395.000000 1153.000000
997.000000 285.000000 950.000000
806.000000 560.000000 787.000000
847.000000 794.000000 886.000000
1120.000000 328.000000 894.000000
709.000000 110.000000 489.000000
662.000000 1676.000000 900.000000
687.000000 1240.000000 711.000000
1116.000000 1643.000000 878.000000
1153.000000 69.000000 1141.000000
652.000000 77.000000 613.000000
1075.000000 1598.000000 946.000000
715.000000 248.000000 557.000000
867.000000 772.000000 728.000000
767.000000 202.000000 674.000000
1184.000000 394.000000 933.000000
919.000000 1584.000000 985.000000
888.000000 1497.000000 1135.000000
810.000000 1666.000000 1040.000000
841.000000 1438.000000 608.000000
1250.000000 1598.000000 1342.000000
791.000000 846.000000 641.000000
793.000000 433.000000 804.000000
978.000000 1545.000000 1149.000000
717.000000 7.000000 693.000000
1050.000000 1115.000000 689.000000
1001.000000 1012.000000 911.000000
1229.000000 1356.000000 933.000000
935.000000 784.000000 789.000000
1159.000000 176.000000 874.000000
843.000000 1177.000000 1005.000000
617.000000 722.000000 820.000000
1190.000000 1641.000000 1258.000000
1044.000000 1604.000000 1186.000000
613.000000 1561.000000 964.000000
654.000000 1382.000000 1143.000000
1283.000000 1380.000000 1050.000000
641.000000 583.000000 832.000000
999.000000 1830.000000 1052.000000
976.000000 632.000000 1050.000000
715.000000 431.000000 919.000000
1155.000000 1516.000000 1170.000000
976.000000 1411.000000 621.000000
851.000000 698.000000 832.000000
925.000000 1543.000000 639.000000
615.000000 1462.000000 960.000000
847.000000 1816.000000 1056.000000
878.000000 1878.000000 861.000000
1069.000000 986.000000 744.000000
1030.000000 897.000000 1015.000000
894.000000 1269.000000 1046.000000
1178.000000 1582.000000 855.000000
1015.000000 1713.000000 872.000000
641.000000 400.000000 647.000000
1186.000000 1670.000000 1342.000000
777.000000 1594.000000 1026.000000
1184.000000 1440.000000 845.000000
752.000000 320.000000 769.000000
1028.000000 636.000000 863.000000
1147.000000 437.000000 1040.000000
1126.000000 77.000000 845.000000
641.000000 957.000000 746.000000
894.000000 1302.000000 600.000000
604.000000 375.000000 715.000000
758.000000 98.000000 563.000000
1073.000000 1267.000000 824.000000
1063.000000 114.000000 909.000000
948.000000 1169.000000 974.000000
1046.000000 1526.000000 1096.000000
964.000000 1600.000000 1192.000000
826.000000 866.000000 913.000000
578.000000 1154.000000 822.000000
635.000000 1029.000000 676.000000
902.000000 1405.000000 1022.000000
1104.000000 1158.000000 598.000000
946.000000 1053.000000 886.000000
738.000000 1035.000000 534.000000
705.000000 1187.000000 625.000000
1163.000000 1469.000000 1309.000000
830.000000 1458.000000 1120.000000
604.000000 1080.000000 787.000000
1098.000000 1465.000000 989.000000
1102.000000 5.000000 931.000000
1089.000000 928.000000 946.000000
791.000000 1902.000000 919.000000
752.000000 963.000000 913.000000
964.000000 722.000000 816.000000
1046.000000 1183.000000 674.000000
818.000000 640.000000 886.000000
1145.000000 1549.000000 791.000000
828.000000 1802.000000 929.000000
1324.000000 1643.000000 1389.000000
791.000000 1919.000000 1052.000000
956.000000 944.000000 972.000000
1192.000000 30.000000 1022.000000
684.000000 1680.000000 968.000000
855.000000 1144.000000 600.000000
1028.000000 1382.000000 983.000000
746.000000 348.000000 617.000000
1017.000000 1590.000000 672.000000
991.000000 1647.000000 705.000000
711.000000 632.000000 952.000000
1022.000000 474.000000 1073.000000
674.000000 881.000000 687.000000
915.000000 1425.000000 594.000000
1056.000000 392.000000 892.000000
865.000000 981.000000 941.000000
791.000000 1197.000000 964.000000
795.000000 1711.000000 837.000000
647.000000 1304.000000 738.000000
1007.000000 1467.000000 645.000000
627.000000 163.000000 561.000000
670.000000 1368.000000 647.000000
615.000000 1440.000000 1026.000000
695.000000 947.000000 615.000000
1081.000000 1645.000000 779.000000
666.000000 172.000000 684.000000
769.000000 1097.000000 571.000000
1110.000000 1214.000000 635.000000
1128.000000 605.000000 1056.000000
1093.000000 276.000000 1050.000000
1091.000000 1175.000000 724.000000
980.000000 1697.000000 1005.000000
732.000000 558.000000 939.000000
991.000000 1647.000000 939.000000
594.000000 1197.000000 746.000000
1075.000000 1066.000000 851.000000
900.000000 1232.000000 637.000000
1034.000000 1257.000000 943.000000
785.000000 266.000000 680.000000
972.000000 628.000000 915.000000
1196.000000 1448.000000 1032.000000
1102.000000 1584.000000 754.000000
991.000000 1185.000000 923.000000
1180.000000 153.000000 991.000000
869.000000 1742.000000 849.000000
1157.000000 1602.000000 1346.000000
738.000000 1512.000000 1093.000000
719.000000 9.000000 580.000000
886.000000 1125.000000 931.000000
906.000000 1826.000000 1143.000000
687.000000 1703.000000 845.000000
1040.000000 1602.000000 1252.000000
682.000000 1625.000000 1022.000000
818.000000 1337.000000 600.000000
1085.000000 568.000000 913.000000
736.000000 1296.000000 687.000000
1003.000000 1499.000000 1215.000000
1118.000000 1384.000000 946.000000
1219.000000 1310.000000 983.000000
627.000000 1499.000000 839.000000
664.000000 786.000000 709.000000
750.000000 1744.000000 872.000000
730.000000 1166.000000 541.000000
849.000000 1347.000000 1056.000000
689.000000 1236.000000 843.000000
779.000000 498.000000 804.000000
676.000000 591.000000 758.000000
750.000000 796.000000 635.000000
728.000000 54.000000 814.000000
1089.000000 1689.000000 1276.000000
672.000000 455.000000 662.000000
658.000000 377.000000 835.000000
991.000000 1247.000000 672.000000
1112.000000 527.000000 1089.000000
1106.000000 472.000000 890.000000
1036.000000 318.000000 1026.000000
958.000000 1162.000000 582.000000
976.000000 404.000000 997.000000
662.000000 470.000000 925.000000
752.000000 1674.000000 775.000000
761.000000 11.000000 758.000000
976.000000 1880.000000 1163.000000
672.000000 1193.000000 777.000000
703.000000 1493.000000 625.000000
1137.000000 87.000000 1081.000000
775.000000 675.000000 931.000000
970.000000 523.000000 1036.000000
808.000000 1462.000000 1017.000000
1213.000000 1506.000000 1124.000000
1089.000000 67.000000 1145.000000
1091.000000 1454.000000 765.000000
1135.000000 1545.000000 970.000000
1061.000000 1553.000000 715.000000
793.000000 690.000000 687.000000
629.000000 1023.000000 806.000000
855.000000 1900.000000 1122.000000
1034.000000 587.000000 1120.000000
775.000000 377.000000 830.000000
888.000000 1590.000000 662.000000
594.000000 1082.000000 724.000000
1073.000000 204.000000 1019.000000
1176.000000 77.000000 966.000000
773.000000 83.000000 670.000000
888.000000 1058.000000 582.000000
1003.000000 463.000000 972.000000
800.000000 309.000000 730.000000
1155.000000 1442.000000 1153.000000
746.000000 1226.000000 598.000000
691.000000 1557.000000 721.000000
1141.000000 1487.000000 798.000000
843.000000 1230.000000 1038.000000
1122.000000 1610.000000 1248.000000
1126.000000 842.000000 896.000000
773.000000 1613.000000 699.000000
652.000000 1526.000000 1067.000000
902.000000 1943.000000 1108.000000
1091.000000 204.000000 861.000000
1022.000000 1002.000000 652.000000
808.000000 1528.000000 654.000000
1011.000000 1672.000000 758.000000
662.000000 848.000000 917.000000
734.000000 463.000000 674.000000
1032.000000 1687.000000 1157.000000
880.000000 1658.000000 1003.000000
937.000000 1471.000000 1007.000000
758.000000 953.000000 610.000000
1268.000000 1617.000000 1398.000000
641.000000 498.000000 724.000000
670.000000 710.000000 734.000000
707.000000 389.000000 874.000000
1038.000000 1206.000000 826.000000
837.000000 1594.000000 1052.000000
1009.000000 877.000000 701.000000
633.000000 566.000000 892.000000
997.000000 694.000000 1073.000000
645.000000 1442.000000 1133.000000
1017.000000 348.000000 954.000000
730.000000 1306.000000 1133.000000
814.000000 1970.000000 952.000000
785.000000 554.000000 909.000000
1063.000000 897.000000 728.000000
987.000000 1645.000000 1143.000000
773.000000 893.000000 927.000000
637.000000 303.000000 608.000000
1167.000000 276.000000 898.000000
1081.000000 283.000000 882.000000
1118.000000 1514.000000 1291.000000
900.000000 801.000000 915.000000
892.000000 1670.000000 761.000000
812.000000 587.000000 857.000000
670.000000 110.000000 660.000000
1211.000000 1477.000000 884.000000
709.000000 1331.000000 1079.000000
1056.000000 174.000000 900.000000
925.000000 1555.000000 1200.000000
863.000000 1425.000000 1161.000000
1161.000000 116.000000 876.000000
1176.000000 246.000000 987.000000
1087.000000 644.000000 1106.000000
1069.000000 1288.000000 880.000000
761.000000 209.000000 565.000000
1007.000000 677.000000 820.000000
896.000000 881.000000 703.000000
695.000000 1304.000000 617.000000
1022.000000 1915.000000 976.000000
1153.000000 449.000000 919.000000
1050.000000 223.000000 954.000000
1122.000000 725.000000 1036.000000
697.000000 1362.000000 989.000000
785.000000 414.000000 748.000000
629.000000 1471.000000 1075.000000
976.000000 1292.000000 608.000000
619.000000 1179.000000 691.000000
1102.000000 1386.000000 853.000000
808.000000 1878.000000 1093.000000
1065.000000 1259.000000 763.000000
777.000000 1726.000000 931.000000
1153.000000 1417.000000 1065.000000
1124.000000 1582.000000 1301.000000
1098.000000 404.000000 1036.000000
1137.000000 1347.000000 1009.000000
954.000000 1785.000000 909.000000
980.000000 1960.000000 956.000000
1219.000000 1551.000000 1324.000000
828.000000 1512.000000 1145.000000
1063.000000 1664.000000 857.000000
740.000000 1434.000000 623.000000
736.000000 1218.000000 964.000000
1054.000000 1333.000000 687.000000
872.000000 821.000000 695.000000
1104.000000 961.000000 898.000000
676.000000 363.000000 617.000000
1155.000000 523.000000 974.000000
806.000000 1146.000000 925.000000
621.000000 202.000000 660.000000
869.000000 1985.000000 939.000000
983.000000 1705.000000 800.000000
1073.000000 19.000000 1067.000000
761.000000 1360.000000 1200.000000
641.000000 1446.000000 750.000000
643.000000 768.000000 925.000000
643.000000 1432.000000 861.000000
1079.000000 44.000000 1013.000000
773.000000 1253.000000 1046.000000
785.000000 478.000000 882.000000
1106.000000 1711.000000 1217.000000
713.000000 1208.000000 888.000000
744.000000 521.000000 721.000000
1116.000000 907.000000 828.000000
674.000000 992.000000 894.000000
985.000000 751.000000 1065.000000
713.000000 611.000000 717.000000
867.000000 1761.000000 1059.000000
1122.000000 764.000000 917.000000
1116.000000 877.000000 941.000000
1081.000000 1058.000000 740.000000
1093.000000 1148.000000 785.000000
890.000000 1171.000000 972.000000
931.000000 1647.000000 1083.000000
736.000000 59.000000 481.000000
647.000000 901.000000 734.000000
1161.000000 24.000000 1176.000000
966.000000 1216.000000 1017.000000
1124.000000 599.000000 941.000000
1013.000000 1261.000000 999.000000
761.000000 1878.000000 999.000000
1028.000000 1863.000000 1124.000000
980.000000 1520.000000 639.000000
1022.000000 1536.000000 966.000000
678.000000 336.000000 787.000000
705.000000 11.000000 522.000000
1258.000000 1323.000000 1083.000000
670.000000 13.000000 726.000000
966.000000 1876.000000 906.000000
1030.000000 796.000000 756.000000
956.000000 1397.000000 1046.000000
719.000000 241.000000 752.000000
637.000000 675.000000 925.000000
1217.000000 1512.000000 1223.000000
619.000000 459.000000 853.000000
785.000000 1275.000000 664.000000
650.000000 1397.000000 927.000000
761.000000 106.000000 619.000000
615.000000 414.000000 754.000000
970.000000 579.000000 1026.000000
1093.000000 1393.000000 798.000000
662.000000 1121.000000 843.000000
635.000000 1395.000000 777.000000
1061.000000 114.000000 978.000000
995.000000 1921.000000 1116.000000
746.000000 1691.000000 962.000000
962.000000 1551.000000 999.000000
896.000000 792.000000 859.000000
804.000000 764.000000 909.000000
699.000000 1195.000000 680.000000
1276.000000 1415.000000 1093.000000
1042.000000 1689.000000 1213.000000
1091.000000 751.000000 830.000000
1067.000000 690.000000 1081.000000
1077.000000 61.000000 898.000000
841.000000 673.000000 783.000000
1044.000000 735.000000 787.000000
643.000000 630.000000 802.000000
1042.000000 1551.000000 1229.000000
1009.000000 1818.000000 983.000000
623.000000 772.000000 843.000000
761.000000 297.000000 639.000000
804.000000 1413.000000 1085.000000
1207.000000 1571.000000 1221.000000
849.000000 743.000000 865.000000
1217.000000 1539.000000 872.000000
937.000000 1652.000000 695.000000
1071.000000 858.000000 767.000000
789.000000 367.000000 719.000000
1172.000000 73.000000 909.000000
915.000000 1173.000000 923.000000
859.000000 737.000000 771.000000
847.000000 1518.000000 1019.000000
1324.000000 1676.000000 1433.000000
629.000000 698.000000 771.000000
791.000000 1822.000000 1003.000000
884.000000 1687.000000 1067.000000
804.000000 1680.000000 791.000000
1143.000000 338.000000 1046.000000
1270.000000 1331.000000 989.000000
999.000000 1345.000000 631.000000
693.000000 546.000000 732.000000
828.000000 735.000000 693.000000
781.000000 1203.000000 633.000000
742.000000 291.000000 588.000000
1135.000000 11.000000 888.000000
629.000000 969.000000 798.000000
705.000000 1288.000000 962.000000
822.000000 1750.000000 950.000000
1079.000000 833.000000 1019.000000
728.000000 9.000000 639.000000
820.000000 1962.000000 1036.000000
1065.000000 1084.000000 787.000000
771.000000 1043.000000 892.000000
773.000000 1308.000000 1048.000000
1079.000000 17.000000 1163.000000
839.000000 1099.000000 919.000000
707.000000 768.000000 652.000000
991.000000 912.000000 664.000000
865.000000 1830.000000 882.000000
915.000000 1520.000000 1017.000000
1065.000000 975.000000 935.000000
789.000000 1364.000000 1056.000000
717.000000 1465.000000 1141.000000
707.000000 1584.000000 674.000000
978.000000 838.000000 1032.000000
956.000000 1810.000000 1083.000000
1172.000000 1680.000000 1291.000000
798.000000 1358.000000 1161.000000
791.000000 1637.000000 997.000000
980.000000 1732.000000 964.000000
993.000000 1946.000000 1067.000000
1022.000000 369.000000 1013.000000
1013.000000 1195.000000 633.000000
1013.000000 1869.000000 950.000000
623.000000 1152.000000 744.000000
888.000000 813.000000 795.000000
635.000000 496.000000 810.000000
678.000000 225.000000 524.000000
1281.000000 1641.000000 1352.000000
719.000000 1633.000000 756.000000
872.000000 1980.000000 1048.000000
1272.000000 1425.000000 1005.000000
1009.000000 1123.000000 849.000000
898.000000 1473.000000 610.000000
689.000000 59.000000 754.000000
791.000000 54.000000 744.000000
732.000000 846.000000 631.000000
923.000000 1742.000000 876.000000
1227.000000 1475.000000 1083.000000
736.000000 1362.000000 617.000000
701.000000 1405.000000 598.000000
985.000000 570.000000 950.000000
650.000000 44.000000 658.000000
