ply
format ascii 1.0
element vertex 848
property float x
property float y
property float z
end_header
373.000000 991.000000 1128.000000
2001.000000 1010.000000 864.000000
1210.000000 991.000000 1137.000000
795.000000 1011.000000 864.000000
1.000000 1010.000000 864.000000
1653.000000 999.000000 1138.000000
1432.000000 1010.000000 864.000000
674.000000 991.000000 1138.000000
1094.000000 1011.000000 864.000000
502.000000 991.000000 864.000000
84.000000 991.000000 1138.000000
1936.000000 991.000000 1138.000000
1719.000000 1009.000000 864.000000
942.000000 1011.000000 1094.000000
252.000000 1011.000000 905.000000
1431.000000 1011.000000 1091.000000
1263.000000 991.000000 952.000000
1575.000000 991.000000 974.000000
1860.000000 1011.000000 976.000000
527.000000 1011.000000 1039.000000
945.000000 991.000000 931.000000
675.000000 991.000000 973.000000
1090.000000 991.000000 1026.000000
226.000000 1011.000000 1065.000000
389.000000 991.000000 973.000000
96.000000 991.000000 984.000000
819.000000 991.000000 1012.000000
1795.000000 1011.000000 1107.000000
2001.000000 992.000000 1008.000000
1710.000000 991.000000 1000.000000
802.000000 1011.000000 1138.000000
131.000000 1011.000000 864.000000
1310.000000 1011.000000 1065.000000
623.000000 1011.000000 864.000000
1392.000000 991.000000 977.000000
1.000000 1010.000000 1054.000000
1053.000000 1010.000000 1138.000000
1547.000000 991.000000 1088.000000
1886.000000 991.000000 864.000000
1603.000000 1010.000000 864.000000
359.000000 1011.000000 864.000000
483.000000 991.000000 1138.000000
1203.000000 1011.000000 864.000000
1324.000000 1006.000000 864.000000
1195.000000 1011.000000 1033.000000
565.000000 991.000000 946.000000
731.000000 1011.000000 1057.000000
1150.000000 991.000000 946.000000
292.000000 991.000000 994.000000
1484.000000 1011.000000 1006.000000
578.000000 1011.000000 1123.000000
1040.000000 1011.000000 945.000000
2.000000 991.000000 959.000000
192.000000 991.000000 977.000000
432.000000 1011.000000 1056.000000
1631.000000 1011.000000 1047.000000
1517.000000 991.000000 900.000000
1778.000000 991.000000 935.000000
1877.000000 991.000000 1066.000000
280.000000 991.000000 1138.000000
1944.000000 1011.000000 937.000000
998.000000 991.000000 1024.000000
709.000000 991.000000 888.000000
476.000000 1011.000000 953.000000
639.000000 1011.000000 1055.000000
135.000000 1011.000000 1064.000000
886.000000 1011.000000 865.000000
1006.000000 991.000000 864.000000
907.000000 1011.000000 1011.000000
1358.000000 991.000000 1138.000000
179.000000 991.000000 1138.000000
1661.000000 1011.000000 930.000000
1133.000000 1011.000000 1100.000000
757.000000 1011.000000 956.000000
1792.000000 991.000000 1024.000000
1.000000 1005.000000 1138.000000
1715.000000 1011.000000 1082.000000
862.000000 991.000000 1084.000000
349.000000 1011.000000 1051.000000
2000.000000 1011.000000 1089.000000
841.000000 991.000000 932.000000
66.000000 991.000000 908.000000
1808.000000 1011.000000 864.000000
429.000000 991.000000 894.000000
1284.000000 1011.000000 1138.000000
1488.000000 991.000000 1138.000000
1927.000000 1011.000000 1012.000000
1453.000000 1011.000000 937.000000
1864.000000 1011.000000 1137.000000
321.000000 991.000000 925.000000
1322.000000 1011.000000 992.000000
1378.000000 991.000000 1048.000000
1378.000000 1011.000000 910.000000
184.000000 991.000000 906.000000
69.000000 991.000000 1050.000000
588.000000 991.000000 1012.000000
1245.000000 991.000000 1077.000000
1043.000000 1011.000000 1071.000000
740.000000 991.000000 1121.000000
793.000000 991.000000 1074.000000
989.000000 991.000000 1138.000000
1586.000000 1011.000000 1138.000000
289.000000 991.000000 1071.000000
1263.000000 991.000000 885.000000
627.000000 1011.000000 932.000000
1260.000000 1011.000000 1016.000000
1844.000000 991.000000 915.000000
893.000000 1011.000000 1138.000000
125.000000 1011.000000 929.000000
561.000000 1011.000000 884.000000
1740.000000 991.000000 1138.000000
1941.000000 991.000000 1073.000000
298.000000 991.000000 864.000000
1638.000000 991.000000 986.000000
1487.000000 991.000000 1067.000000
1544.000000 1011.000000 1028.000000
1208.000000 1011.000000 928.000000
1320.000000 991.000000 925.000000
473.000000 991.000000 1013.000000
2001.000000 991.000000 923.000000
948.000000 1011.000000 872.000000
1661.000000 991.000000 871.000000
1148.000000 991.000000 885.000000
1721.000000 1011.000000 943.000000
1094.000000 991.000000 922.000000
1945.000000 991.000000 879.000000
1572.000000 1011.000000 916.000000
527.000000 991.000000 1096.000000
429.000000 1011.000000 1118.000000
1142.000000 1011.000000 1003.000000
1519.000000 1011.000000 957.000000
40.000000 1011.000000 1001.000000
1436.000000 991.000000 1035.000000
893.000000 1011.000000 952.000000
986.000000 1011.000000 969.000000
726.000000 991.000000 1002.000000
379.000000 1011.000000 919.000000
246.000000 1011.000000 964.000000
44.000000 1011.000000 1099.000000
181.000000 991.000000 1034.000000
579.000000 991.000000 1069.000000
1214.000000 991.000000 982.000000
523.000000 991.000000 985.000000
1185.000000 991.000000 1086.000000
230.000000 1011.000000 1122.000000
684.000000 991.000000 1082.000000
516.000000 991.000000 919.000000
324.000000 1011.000000 1110.000000
1092.000000 1011.000000 974.000000
627.000000 991.000000 1106.000000
992.000000 991.000000 1081.000000
762.000000 991.000000 904.000000
220.000000 992.000000 864.000000
1759.000000 1011.000000 984.000000
233.000000 991.000000 1014.000000
994.000000 1011.000000 914.000000
1044.000000 1011.000000 1001.000000
1616.000000 991.000000 1096.000000
343.000000 1011.000000 996.000000
1843.000000 1011.000000 1028.000000
477.000000 1011.000000 1087.000000
131.000000 1011.000000 1119.000000
947.000000 991.000000 1043.000000
1413.000000 991.000000 1138.000000
144.000000 1011.000000 999.000000
1894.000000 991.000000 939.000000
1990.000000 991.000000 1138.000000
1048.000000 1011.000000 892.000000
1763.000000 991.000000 1069.000000
1681.000000 991.000000 1045.000000
681.000000 1011.000000 1022.000000
393.000000 991.000000 1026.000000
1084.000000 991.000000 1098.000000
1144.000000 991.000000 1052.000000
771.000000 1011.000000 1022.000000
1550.000000 1011.000000 864.000000
1764.000000 991.000000 884.000000
628.000000 1011.000000 985.000000
1485.000000 1011.000000 864.000000
707.000000 1011.000000 937.000000
389.000000 991.000000 1078.000000
178.000000 991.000000 1086.000000
1812.000000 991.000000 975.000000
861.000000 1011.000000 1035.000000
1614.000000 991.000000 939.000000
18.000000 1011.000000 914.000000
840.000000 991.000000 880.000000
1355.000000 1011.000000 1090.000000
658.000000 991.000000 896.000000
1663.000000 1011.000000 1089.000000
808.000000 1011.000000 966.000000
435.000000 1011.000000 984.000000
1535.000000 1011.000000 1134.000000
1584.000000 991.000000 1053.000000
1826.000000 991.000000 1072.000000
1904.000000 1011.000000 1104.000000
1443.000000 991.000000 984.000000
1385.000000 991.000000 864.000000
52.000000 1011.000000 952.000000
80.000000 1011.000000 864.000000
865.000000 991.000000 989.000000
1159.000000 991.000000 1138.000000
903.000000 1011.000000 1062.000000
942.000000 991.000000 981.000000
474.000000 1011.000000 901.000000
1960.000000 991.000000 980.000000
848.000000 991.000000 1132.000000
902.000000 991.000000 907.000000
92.000000 1011.000000 1089.000000
1977.000000 1011.000000 1046.000000
1698.000000 991.000000 905.000000
1355.000000 1011.000000 953.000000
939.000000 991.000000 1138.000000
1103.000000 1011.000000 1138.000000
1742.000000 1011.000000 1030.000000
1598.000000 1011.000000 1011.000000
1698.000000 1011.000000 1127.000000
424.000000 1011.000000 937.000000
745.000000 1011.000000 864.000000
1315.000000 991.000000 1108.000000
1422.000000 991.000000 907.000000
1884.000000 991.000000 1014.000000
105.000000 1011.000000 1026.000000
804.000000 1011.000000 911.000000
272.000000 1011.000000 1032.000000
532.000000 1011.000000 1138.000000
2000.000000 1011.000000 965.000000
600.000000 991.000000 900.000000
1909.000000 1011.000000 900.000000
177.000000 1011.000000 864.000000
1335.000000 991.000000 1032.000000
1678.000000 1011.000000 974.000000
291.000000 1011.000000 953.000000
1823.000000 991.000000 1138.000000
208.000000 1011.000000 939.000000
3.000000 991.000000 1095.000000
1.000000 991.000000 1012.000000
1368.000000 1011.000000 1009.000000
1105.000000 1011.000000 1063.000000
825.000000 1011.000000 1099.000000
1470.000000 991.000000 901.000000
41.000000 991.000000 871.000000
151.000000 991.000000 960.000000
1245.000000 1011.000000 1117.000000
314.000000 991.000000 1033.000000
1019.000000 1011.000000 1110.000000
1627.000000 1011.000000 902.000000
403.000000 1011.000000 864.000000
1505.000000 1011.000000 1102.000000
1960.000000 1011.000000 1107.000000
349.000000 1011.000000 952.000000
1393.000000 991.000000 1099.000000
1522.000000 991.000000 996.000000
1806.000000 1011.000000 908.000000
1176.000000 1011.000000 975.000000
107.000000 991.000000 894.000000
1481.000000 991.000000 963.000000
562.000000 1011.000000 984.000000
1282.000000 1011.000000 919.000000
1849.000000 1011.000000 877.000000
1407.000000 1011.000000 942.000000
902.000000 991.000000 1101.000000
1903.000000 1011.000000 976.000000
1451.000000 1011.000000 1129.000000
452.000000 1011.000000 864.000000
491.000000 991.000000 1052.000000
268.000000 1011.000000 1102.000000
41.000000 991.000000 1137.000000
678.000000 1010.000000 864.000000
703.000000 1011.000000 1114.000000
759.000000 1011.000000 1089.000000
1285.000000 991.000000 988.000000
1911.000000 1011.000000 1051.000000
821.000000 1011.000000 1049.000000
261.000000 1011.000000 864.000000
1855.000000 1011.000000 1096.000000
1410.000000 1011.000000 1009.000000
1663.000000 1011.000000 1013.000000
1277.000000 991.000000 1049.000000
644.000000 991.000000 1018.000000
1280.000000 1011.000000 1094.000000
89.000000 991.000000 943.000000
964.000000 1011.000000 1010.000000
1753.000000 1011.000000 1104.000000
1231.000000 991.000000 1038.000000
294.000000 1011.000000 900.000000
866.000000 1011.000000 905.000000
778.000000 991.000000 986.000000
1188.000000 991.000000 898.000000
1734.000000 1011.000000 904.000000
1130.000000 1011.000000 916.000000
1302.000000 1011.000000 956.000000
1973.000000 1011.000000 901.000000
604.000000 991.000000 959.000000
1522.000000 1011.000000 1063.000000
1039.000000 991.000000 1036.000000
433.000000 991.000000 1020.000000
1581.000000 1011.000000 1098.000000
1346.000000 991.000000 894.000000
530.000000 1011.000000 951.000000
667.000000 1011.000000 935.000000
1021.000000 991.000000 974.000000
349.000000 991.000000 1086.000000
333.000000 991.000000 887.000000
1494.000000 1011.000000 926.000000
1780.000000 991.000000 1138.000000
1229.000000 1011.000000 894.000000
1832.000000 1011.000000 947.000000
615.000000 1011.000000 1138.000000
1550.000000 991.000000 943.000000
1506.000000 991.000000 1032.000000
1795.000000 1011.000000 1058.000000
33.000000 991.000000 1067.000000
151.000000 1011.000000 899.000000
1301.000000 1011.000000 1025.000000
601.000000 1011.000000 1043.000000
661.000000 1011.000000 1107.000000
1410.000000 1011.000000 1058.000000
787.000000 991.000000 940.000000
1213.000000 1011.000000 1068.000000
1465.000000 991.000000 1099.000000
1608.000000 1011.000000 972.000000
444.000000 991.000000 1088.000000
1897.000000 991.000000 1138.000000
1301.000000 991.000000 891.000000
142.000000 991.000000 1032.000000
263.000000 991.000000 936.000000
979.000000 1011.000000 1051.000000
549.000000 991.000000 1014.000000
1125.000000 991.000000 975.000000
321.000000 991.000000 969.000000
587.000000 991.000000 864.000000
781.000000 991.000000 1113.000000
725.000000 991.000000 964.000000
1960.000000 991.000000 1018.000000
201.000000 1011.000000 1008.000000
455.000000 991.000000 928.000000
1576.000000 991.000000 884.000000
1247.000000 1011.000000 980.000000
1059.000000 991.000000 971.000000
1174.000000 991.000000 1007.000000
1026.000000 991.000000 916.000000
1184.000000 1011.000000 1118.000000
547.000000 1011.000000 1071.000000
70.000000 991.000000 1012.000000
215.000000 1011.000000 898.000000
965.000000 991.000000 899.000000
1455.000000 1011.000000 1062.000000
722.000000 991.000000 1088.000000
381.000000 991.000000 887.000000
700.000000 991.000000 1048.000000
523.000000 1011.000000 888.000000
609.000000 1011.000000 1080.000000
1325.000000 1011.000000 1138.000000
1073.000000 991.000000 1061.000000
170.000000 1011.000000 935.000000
846.000000 1011.000000 963.000000
976.000000 1011.000000 1109.000000
1689.000000 991.000000 944.000000
762.000000 991.000000 1053.000000
1718.000000 991.000000 1050.000000
504.000000 1011.000000 1010.000000
917.000000 991.000000 868.000000
549.000000 1011.000000 919.000000
1240.000000 991.000000 923.000000
1917.000000 1011.000000 864.000000
1878.000000 991.000000 900.000000
1063.000000 991.000000 865.000000
1286.000000 1011.000000 864.000000
215.000000 991.000000 1095.000000
337.000000 991.000000 1138.000000
105.000000 991.000000 1057.000000
502.000000 1011.000000 1114.000000
732.000000 1011.000000 910.000000
121.000000 1011.000000 966.000000
1168.000000 1011.000000 921.000000
905.000000 991.000000 980.000000
1616.000000 991.000000 1133.000000
259.000000 1011.000000 998.000000
1112.000000 991.000000 890.000000
320.000000 1011.000000 1074.000000
37.000000 991.000000 1031.000000
1049.000000 991.000000 1107.000000
1351.000000 991.000000 984.000000
255.000000 991.000000 1057.000000
1002.000000 991.000000 943.000000
1519.000000 992.000000 864.000000
1219.000000 991.000000 1102.000000
1568.000000 991.000000 1010.000000
1233.000000 991.000000 864.000000
589.000000 1011.000000 928.000000
1748.000000 991.000000 956.000000
1974.000000 991.000000 947.000000
565.000000 1011.000000 1040.000000
1840.000000 991.000000 998.000000
932.000000 1011.000000 904.000000
643.000000 991.000000 957.000000
395.000000 1011.000000 1107.000000
357.000000 991.000000 1022.000000
764.000000 1011.000000 1138.000000
122.000000 991.000000 1091.000000
699.000000 1011.000000 990.000000
1119.000000 1011.000000 1030.000000
407.000000 991.000000 1138.000000
487.000000 991.000000 980.000000
378.000000 1011.000000 1001.000000
1385.000000 1011.000000 1127.000000
1222.000000 1011.000000 1010.000000
1562.000000 991.000000 1120.000000
1929.000000 991.000000 963.000000
1186.000000 991.000000 947.000000
890.000000 991.000000 1035.000000
540.000000 991.000000 864.000000
928.000000 1011.000000 955.000000
869.000000 1011.000000 1112.000000
1865.000000 1011.000000 935.000000
1691.000000 991.000000 1099.000000
1547.000000 1011.000000 981.000000
1471.000000 991.000000 1033.000000
1168.000000 1011.000000 864.000000
1014.000000 1011.000000 1051.000000
166.000000 1011.000000 1112.000000
464.000000 1011.000000 1042.000000
794.000000 991.000000 1039.000000
687.000000 1011.000000 906.000000
1115.000000 1011.000000 948.000000
1024.000000 991.000000 1138.000000
1404.000000 1011.000000 885.000000
512.000000 1011.000000 1071.000000
1129.000000 1011.000000 864.000000
1075.000000 1011.000000 943.000000
1812.000000 1011.000000 1004.000000
296.000000 991.000000 1106.000000
1627.000000 991.000000 1019.000000
191.000000 1011.000000 1061.000000
1171.000000 1011.000000 1060.000000
1557.000000 1011.000000 1061.000000
562.000000 991.000000 1099.000000
1338.000000 991.000000 1067.000000
1639.000000 1011.000000 957.000000
1379.000000 991.000000 938.000000
59.000000 991.000000 979.000000
1688.000000 1011.000000 879.000000
230.000000 991.000000 922.000000
1450.000000 1011.000000 1011.000000
1786.000000 1011.000000 963.000000
665.000000 991.000000 1045.000000
1082.000000 1011.000000 897.000000
1975.000000 991.000000 1077.000000
1060.000000 991.000000 919.000000
630.000000 1011.000000 898.000000
448.000000 991.000000 1138.000000
875.000000 991.000000 931.000000
1007.000000 1011.000000 998.000000
1701.000000 1011.000000 1026.000000
1724.000000 991.000000 1108.000000
1725.000000 1011.000000 977.000000
650.000000 991.000000 1081.000000
1606.000000 1011.000000 1070.000000
1584.000000 1011.000000 948.000000
346.000000 1011.000000 911.000000
1.000000 991.000000 892.000000
1537.000000 1011.000000 919.000000
1934.000000 991.000000 911.000000
1358.000000 1011.000000 868.000000
751.000000 1011.000000 990.000000
70.000000 991.000000 1107.000000
1641.000000 991.000000 1073.000000
10.000000 1011.000000 985.000000
397.000000 991.000000 940.000000
1823.000000 991.000000 887.000000
982.000000 1011.000000 878.000000
449.000000 991.000000 961.000000
1654.000000 991.000000 904.000000
383.000000 1011.000000 1051.000000
1599.000000 991.000000 909.000000
971.000000 1011.000000 939.000000
660.000000 1011.000000 996.000000
1944.000000 1011.000000 1041.000000
1878.000000 991.000000 1110.000000
1127.000000 991.000000 1126.000000
1234.000000 1011.000000 949.000000
1967.000000 1011.000000 864.000000
92.000000 1011.000000 916.000000
1329.000000 991.000000 959.000000
1875.000000 1011.000000 1039.000000
225.000000 991.000000 981.000000
1830.000000 991.000000 1105.000000
1628.000000 991.000000 875.000000
1459.000000 991.000000 869.000000
1769.000000 1011.000000 910.000000
29.000000 991.000000 939.000000
1638.000000 1011.000000 1111.000000
929.000000 991.000000 1071.000000
1850.000000 1011.000000 1061.000000
503.000000 991.000000 951.000000
715.000000 1011.000000 1026.000000
1419.000000 1011.000000 973.000000
595.000000 1011.000000 986.000000
845.000000 1011.000000 1006.000000
465.000000 1011.000000 1118.000000
650.000000 991.000000 864.000000
213.000000 991.000000 1042.000000
770.000000 991.000000 872.000000
1761.000000 991.000000 1012.000000
170.000000 991.000000 1002.000000
1347.000000 1011.000000 921.000000
641.000000 991.000000 1136.000000
1064.000000 1011.000000 1028.000000
2001.000000 991.000000 1056.000000
831.000000 991.000000 1073.000000
306.000000 1011.000000 1138.000000
1930.000000 991.000000 1104.000000
742.000000 991.000000 934.000000
1445.000000 1011.000000 894.000000
934.000000 991.000000 1013.000000
1015.000000 1011.000000 889.000000
921.000000 1011.000000 1119.000000
411.000000 1011.000000 1006.000000
712.000000 991.000000 1138.000000
271.000000 991.000000 888.000000
271.000000 991.000000 969.000000
160.000000 991.000000 1059.000000
1996.000000 991.000000 890.000000
1909.000000 991.000000 1079.000000
1078.000000 991.000000 1130.000000
1158.000000 991.000000 1104.000000
404.000000 1011.000000 898.000000
808.000000 991.000000 886.000000
594.000000 991.000000 1103.000000
198.000000 1011.000000 1118.000000
1161.000000 1011.000000 1029.000000
1811.000000 991.000000 933.000000
1252.000000 1011.000000 1052.000000
154.000000 991.000000 874.000000
619.000000 1011.000000 1016.000000
1821.000000 991.000000 1040.000000
1431.000000 991.000000 951.000000
313.000000 1011.000000 1008.000000
828.000000 991.000000 981.000000
558.000000 991.000000 1138.000000
961.000000 991.000000 1072.000000
323.000000 1011.000000 864.000000
120.000000 991.000000 1006.000000
1259.000000 991.000000 1138.000000
1070.000000 991.000000 1001.000000
147.000000 991.000000 1138.000000
1977.000000 1011.000000 998.000000
356.000000 1011.000000 1110.000000
418.000000 1011.000000 1085.000000
246.000000 991.000000 1088.000000
1383.000000 1011.000000 1075.000000
1783.000000 991.000000 989.000000
739.000000 991.000000 1031.000000
64.000000 1011.000000 1074.000000
44.000000 1011.000000 896.000000
1748.000000 991.000000 924.000000
357.000000 991.000000 975.000000
713.000000 1011.000000 864.000000
1115.000000 991.000000 1006.000000
982.000000 991.000000 993.000000
1965.000000 1011.000000 1138.000000
241.000000 1011.000000 1037.000000
1125.000000 991.000000 1077.000000
1024.000000 991.000000 1086.000000
800.000000 1011.000000 997.000000
1792.000000 991.000000 1083.000000
473.000000 991.000000 876.000000
964.000000 1011.000000 1138.000000
1034.000000 1011.000000 864.000000
912.000000 991.000000 937.000000
212.000000 991.000000 1138.000000
149.000000 991.000000 923.000000
493.000000 1011.000000 926.000000
1740.000000 1011.000000 1062.000000
1517.000000 991.000000 933.000000
1354.000000 1011.000000 1049.000000
1323.000000 1011.000000 901.000000
1984.000000 991.000000 1107.000000
168.000000 1011.000000 977.000000
923.000000 1011.000000 1038.000000
835.000000 1011.000000 908.000000
1751.000000 1011.000000 864.000000
1661.000000 1011.000000 1058.000000
1494.000000 1011.000000 894.000000
1548.000000 991.000000 898.000000
249.000000 992.000000 1138.000000
570.000000 991.000000 908.000000
116.000000 991.000000 1138.000000
100.000000 1011.000000 1119.000000
1432.000000 991.000000 1067.000000
1405.000000 991.000000 1032.000000
80.000000 1011.000000 965.000000
1772.000000 1011.000000 1037.000000
465.000000 1011.000000 991.000000
1527.000000 991.000000 1112.000000
767.000000 1011.000000 927.000000
359.000000 991.000000 931.000000
418.000000 991.000000 963.000000
819.000000 991.000000 1122.000000
409.000000 991.000000 1053.000000
1466.000000 1011.000000 981.000000
497.000000 991.000000 895.000000
1433.000000 991.000000 1114.000000
1205.000000 1011.000000 960.000000
1498.000000 1011.000000 979.000000
298.000000 1011.000000 1050.000000
1575.000000 1011.000000 1032.000000
1881.000000 991.000000 967.000000
704.000000 1011.000000 1071.000000
872.000000 991.000000 883.000000
1652.000000 991.000000 1036.000000
1911.000000 991.000000 1028.000000
1679.000000 991.000000 997.000000
104.000000 992.000000 864.000000
426.000000 991.000000 864.000000
29.000000 991.000000 973.000000
1154.000000 991.000000 984.000000
63.000000 1011.000000 1130.000000
965.000000 991.000000 961.000000
819.000000 1011.000000 938.000000
872.000000 1011.000000 1063.000000
877.000000 1011.000000 1008.000000
291.000000 991.000000 923.000000
18.000000 1011.000000 1114.000000
856.000000 1011.000000 864.000000
1479.000000 1011.000000 1117.000000
1193.000000 991.000000 1056.000000
1938.000000 1011.000000 984.000000
1345.000000 991.000000 1110.000000
464.000000 991.000000 1065.000000
1662.000000 991.000000 957.000000
379.000000 1011.000000 953.000000
239.000000 991.000000 887.000000
781.000000 1011.000000 892.000000
1910.000000 991.000000 997.000000
1915.000000 1011.000000 930.000000
1256.000000 1011.000000 864.000000
1853.000000 991.000000 955.000000
1092.000000 1011.000000 1004.000000
1282.000000 991.000000 1116.000000
667.000000 1011.000000 1067.000000
795.000000 1011.000000 1096.000000
1243.000000 991.000000 1002.000000
1.000000 991.000000 928.000000
838.000000 991.000000 1035.000000
1663.000000 991.000000 1111.000000
1786.000000 991.000000 864.000000
1700.000000 991.000000 972.000000
1863.000000 1011.000000 1006.000000
648.000000 991.000000 924.000000
623.000000 991.000000 1039.000000
1690.000000 1011.000000 1066.000000
1195.000000 1011.000000 998.000000
1734.000000 991.000000 882.000000
687.000000 991.000000 946.000000
194.000000 991.000000 878.000000
1411.000000 1011.000000 1113.000000
954.000000 991.000000 1112.000000
870.000000 991.000000 960.000000
1517.000000 991.000000 1084.000000
320.000000 1011.000000 947.000000
1962.000000 991.000000 920.000000
1786.000000 1011.000000 886.000000
188.000000 991.000000 947.000000
445.000000 1011.000000 909.000000
59.000000 1011.000000 1031.000000
162.000000 1011.000000 1024.000000
542.000000 991.000000 898.000000
1291.000000 991.000000 1075.000000
1103.000000 1011.000000 1108.000000
582.000000 1011.000000 959.000000
1489.000000 1011.000000 1045.000000
226.000000 991.000000 951.000000
498.000000 991.000000 1091.000000
739.000000 991.000000 886.000000
543.000000 1011.000000 1110.000000
826.000000 1011.000000 864.000000
15.000000 1011.000000 1028.000000
1474.000000 991.000000 934.000000
1389.000000 991.000000 1006.000000
1255.000000 1011.000000 908.000000
1070.000000 1011.000000 1082.000000
151.000000 991.000000 1097.000000
593.000000 991.000000 1138.000000
1281.000000 991.000000 1018.000000
1592.000000 991.000000 1116.000000
1774.000000 991.000000 1109.000000
1094.000000 991.000000 953.000000
1289.000000 991.000000 939.000000
545.000000 991.000000 1050.000000
1539.000000 991.000000 1050.000000
1802.000000 1011.000000 1136.000000
1739.000000 991.000000 993.000000
997.000000 991.000000 1110.000000
1276.000000 1011.000000 969.000000
1609.000000 991.000000 993.000000
906.000000 1011.000000 886.000000
1371.000000 1011.000000 978.000000
884.000000 1011.000000 980.000000
1760.000000 1011.000000 1132.000000
1024.000000 991.000000 1010.000000
1603.000000 1011.000000 1040.000000
367.000000 1011.000000 1075.000000
547.000000 991.000000 969.000000
1677.000000 1011.000000 906.000000
507.000000 1011.000000 972.000000
16.000000 1011.000000 1079.000000
712.000000 991.000000 917.000000
1917.000000 1011.000000 1130.000000
268.000000 1011.000000 1073.000000
512.000000 991.000000 1132.000000
1325.000000 1011.000000 1090.000000
699.000000 991.000000 1012.000000
2000.000000 1011.000000 1120.000000
1144.000000 1011.000000 966.000000
1738.000000 991.000000 1083.000000
1838.000000 1011.000000 1124.000000
1146.000000 1011.000000 1074.000000
336.000000 1011.000000 1025.000000
1306.000000 991.000000 1045.000000
1681.000000 991.000000 1138.000000
782.000000 1011.000000 1057.000000
683.000000 991.000000 1111.000000
1139.000000 991.000000 1024.000000
1304.000000 991.000000 1135.000000
2001.000000 1010.000000 1030.000000
1882.000000 1011.000000 1086.000000
532.000000 1011.000000 1003.000000
509.000000 991.000000 1030.000000
1528.000000 1011.000000 883.000000
887.000000 1011.000000 1087.000000
1212.000000 991.000000 883.000000
995.000000 991.000000 894.000000
1699.000000 1011.000000 925.000000
612.000000 991.000000 997.000000
1641.000000 991.000000 930.000000
1518.000000 1011.000000 1016.000000
599.000000 1011.000000 880.000000
1989.000000 991.000000 982.000000
48.000000 1011.000000 924.000000
1307.000000 991.000000 1006.000000
76.000000 1011.000000 993.000000
1481.000000 1011.000000 1086.000000
1374.000000 991.000000 890.000000
210.000000 1011.000000 968.000000
1507.000000 1011.000000 1131.000000
1981.000000 1011.000000 928.000000
1832.000000 1011.000000 979.000000
580.000000 1011.000000 1089.000000
1068.000000 1011.000000 1113.000000
1150.000000 991.000000 913.000000
159.000000 1011.000000 1079.000000
68.000000 991.000000 880.000000
414.000000 1011.000000 1034.000000
1169.000000 1011.000000 892.000000
330.000000 991.000000 1056.000000
923.000000 1011.000000 988.000000
1888.000000 1011.000000 919.000000
413.000000 991.000000 917.000000
117.000000 991.000000 947.000000
1546.000000 1011.000000 1108.000000
452.000000 1011.000000 1016.000000
1759.000000 1011.000000 940.000000
1574.000000 991.000000 1079.000000
966.000000 991.000000 865.000000
756.000000 991.000000 1009.000000
134.000000 991.000000 982.000000
414.000000 991.000000 1104.000000
1780.000000 1011.000000 1008.000000
304.000000 1011.000000 978.000000
1817.000000 1011.000000 1089.000000
1859.000000 1011.000000 903.000000
1257.000000 991.000000 1102.000000
624.000000 991.000000 1067.000000
1577.000000 1011.000000 993.000000
1719.000000 991.000000 924.000000
1340.000000 1011.000000 1013.000000
1958.000000 1011.000000 961.000000
1386.000000 1011.000000 1030.000000
1856.000000 991.000000 1042.000000
568.000000 1011.000000 1012.000000
243.000000 1011.000000 936.000000
88.000000 1011.000000 1048.000000
788.000000 991.000000 1012.000000
1887.000000 1011.000000 883.000000
608.000000 991.000000 929.000000
961.000000 1011.000000 982.000000
1040.000000 1011.000000 973.000000
271.000000 991.000000 1013.000000
356.000000 1011.000000 1138.000000
731.000000 1011.000000 1138.000000
1204.000000 991.000000 1016.000000
734.000000 1011.000000 1103.000000
1447.000000 991.000000 919.000000
1466.000000 991.000000 1000.000000
1594.000000 1011.000000 890.000000
1396.000000 991.000000 916.000000
1201.000000 1011.000000 1096.000000
1773.000000 1011.000000 1085.000000
1281.000000 1011.000000 891.000000
970.000000 991.000000 1028.000000
1917.000000 991.000000 883.000000
892.000000 1011.000000 923.000000
876.000000 991.000000 1130.000000
21.000000 1011.000000 956.000000
843.000000 991.000000 1104.000000
1646.000000 1011.000000 882.000000
407.000000 1011.000000 978.000000
1148.000000 1011.000000 1123.000000
1611.000000 1011.000000 1115.000000
1533.000000 991.000000 969.000000
373.000000 991.000000 1100.000000
1445.000000 1011.000000 963.000000
1927.000000 1011.000000 1085.000000
196.000000 1011.000000 1090.000000
854.000000 991.000000 1057.000000
805.000000 1011.000000 1024.000000
916.000000 1011.000000 1086.000000
1787.000000 991.000000 906.000000
746.000000 991.000000 1075.000000
1413.000000 991.000000 868.000000
63.000000 991.000000 935.000000
1958.000000 1011.000000 1066.000000
1015.000000 1011.000000 956.000000
657.000000 1011.000000 969.000000
1417.000000 991.000000 992.000000
1727.000000 1011.000000 1007.000000
1215.000000 991.000000 910.000000
682.000000 991.000000 883.000000
1185.000000 991.000000 871.000000
691.000000 1011.000000 964.000000
540.000000 991.000000 935.000000
1672.000000 991.000000 1073.000000
912.000000 991.000000 1135.000000
945.000000 1011.000000 1062.000000
125.000000 1011.000000 891.000000
1365.000000 991.000000 1072.000000
579.000000 991.000000 977.000000
812.000000 1011.000000 1075.000000
1428.000000 1011.000000 925.000000
1725.000000 1011.000000 1127.000000
829.000000 1011.000000 1138.000000
1032.000000 991.000000 882.000000
1168.000000 1011.000000 949.000000
621.000000 991.000000 882.000000
446.000000 991.000000 1044.000000
1117.000000 991.000000 1048.000000
