ply
format ascii 1.0
element vertex 838
property float x
property float y
property float z
end_header
1538.000000 1224.000000 1865.000000
369.000000 1465.000000 1.000000
1546.000000 535.000000 228.000000
365.000000 1465.000000 1321.000000
1344.000000 1467.000000 795.000000
546.000000 535.000000 1865.000000
546.000000 535.000000 228.000000
1633.000000 1423.000000 1.000000
786.000000 1460.000000 2001.000000
639.000000 1421.000000 662.000000
1027.000000 1216.000000 1377.000000
1456.000000 535.000000 1774.000000
1008.000000 1217.000000 138.000000
1637.000000 1465.000000 1321.000000
456.000000 1076.000000 1774.000000
533.000000 1042.000000 228.000000
1456.000000 1022.000000 228.000000
970.000000 1216.000000 913.000000
1169.000000 1467.000000 1737.000000
1330.000000 1467.000000 341.000000
724.000000 1467.000000 1567.000000
365.000000 1465.000000 1927.000000
700.000000 1467.000000 255.000000
743.000000 1467.000000 1150.000000
999.000000 1307.000000 525.000000
1264.000000 1467.000000 1183.000000
365.000000 1465.000000 932.000000
1637.000000 1423.000000 558.000000
365.000000 1437.000000 412.000000
913.000000 1216.000000 1769.000000
1546.000000 868.000000 1863.000000
1226.000000 1465.000000 1.000000
1637.000000 1423.000000 975.000000
1491.000000 1467.000000 1628.000000
1363.000000 1465.000000 2001.000000
421.000000 1421.000000 1624.000000
880.000000 1465.000000 1.000000
918.000000 1467.000000 762.000000
634.000000 1307.000000 1802.000000
1041.000000 1467.000000 284.000000
1245.000000 1216.000000 1859.000000
1150.000000 1467.000000 1448.000000
1013.000000 1467.000000 1046.000000
1070.000000 1423.000000 2001.000000
456.000000 790.000000 1774.000000
1415.000000 1288.000000 138.000000
1609.000000 1467.000000 279.000000
456.000000 785.000000 137.000000
729.000000 1217.000000 138.000000
1637.000000 1465.000000 1960.000000
456.000000 1300.000000 197.000000
1546.000000 788.000000 137.000000
899.000000 1467.000000 1363.000000
1202.000000 1467.000000 573.000000
378.000000 1421.000000 672.000000
625.000000 1467.000000 918.000000
625.000000 1421.000000 9.000000
1396.000000 1421.000000 1396.000000
913.000000 1467.000000 1737.000000
809.000000 1467.000000 483.000000
606.000000 1421.000000 1354.000000
506.000000 1421.000000 1126.000000
956.000000 1255.000000 1150.000000
1046.000000 1307.000000 1595.000000
1202.000000 1307.000000 229.000000
1411.000000 1421.000000 1013.000000
1126.000000 1421.000000 852.000000
587.000000 1467.000000 449.000000
1567.000000 1467.000000 767.000000
1415.000000 1421.000000 539.000000
568.000000 1423.000000 2001.000000
1456.000000 1045.000000 1774.000000
1046.000000 1222.000000 715.000000
1368.000000 1421.000000 1794.000000
828.000000 1421.000000 956.000000
1070.000000 1421.000000 1250.000000
956.000000 1217.000000 341.000000
1434.000000 1467.000000 37.000000
1467.000000 1467.000000 1207.000000
1297.000000 1421.000000 1581.000000
1637.000000 1423.000000 1761.000000
516.000000 1467.000000 1794.000000
1051.000000 1421.000000 90.000000
456.000000 1253.000000 1865.000000
1074.000000 1307.000000 1835.000000
876.000000 1421.000000 189.000000
1637.000000 1423.000000 1510.000000
951.000000 1467.000000 1548.000000
546.000000 933.000000 1865.000000
738.000000 1467.000000 1813.000000
506.000000 1467.000000 274.000000
1546.000000 676.000000 1865.000000
1546.000000 1188.000000 228.000000
1231.000000 1467.000000 999.000000
1022.000000 1467.000000 610.000000
1297.000000 1467.000000 165.000000
1169.000000 1421.000000 402.000000
1221.000000 1421.000000 1903.000000
511.000000 1467.000000 781.000000
1633.000000 1467.000000 1145.000000
554.000000 1467.000000 1519.000000
748.000000 1421.000000 800.000000
1392.000000 1245.000000 1768.000000
909.000000 1421.000000 1179.000000
365.000000 1446.000000 175.000000
923.000000 1421.000000 1903.000000
767.000000 1216.000000 1859.000000
975.000000 1467.000000 445.000000
1456.000000 1435.000000 214.000000
1456.000000 678.000000 228.000000
1534.000000 1467.000000 430.000000
620.000000 1307.000000 229.000000
809.000000 1421.000000 644.000000
1514.000000 1388.000000 1865.000000
546.000000 1178.000000 137.000000
1046.000000 1307.000000 1022.000000
610.000000 1421.000000 1671.000000
511.000000 1467.000000 113.000000
546.000000 881.000000 228.000000
752.000000 1467.000000 99.000000
852.000000 1264.000000 229.000000
506.000000 1467.000000 587.000000
757.000000 1421.000000 1302.000000
546.000000 694.000000 1864.000000
1456.000000 772.000000 1774.000000
365.000000 1465.000000 1482.000000
1250.000000 1421.000000 1335.000000
365.000000 1423.000000 1775.000000
546.000000 694.000000 228.000000
975.000000 1421.000000 899.000000
866.000000 1421.000000 345.000000
1098.000000 1467.000000 1595.000000
1065.000000 1467.000000 1851.000000
1212.000000 1421.000000 724.000000
365.000000 1465.000000 1164.000000
1046.000000 1307.000000 255.000000
1546.000000 941.000000 137.000000
1444.000000 1421.000000 691.000000
1467.000000 1421.000000 871.000000
956.000000 1216.000000 1515.000000
1283.000000 1216.000000 139.000000
456.000000 613.000000 1774.000000
456.000000 613.000000 137.000000
1141.000000 1421.000000 1112.000000
1576.000000 1467.000000 132.000000
1456.000000 863.000000 228.000000
956.000000 1307.000000 795.000000
456.000000 954.000000 137.000000
956.000000 1307.000000 1287.000000
497.000000 1421.000000 980.000000
1046.000000 1216.000000 1709.000000
1188.000000 1467.000000 265.000000
501.000000 1467.000000 1264.000000
639.000000 1421.000000 1055.000000
786.000000 1421.000000 1444.000000
1546.000000 1326.000000 185.000000
1529.000000 1467.000000 1425.000000
546.000000 1188.000000 1774.000000
1505.000000 1432.000000 2001.000000
1018.000000 1421.000000 1425.000000
710.000000 1421.000000 393.000000
790.000000 1421.000000 1685.000000
473.000000 1421.000000 1401.000000
625.000000 1421.000000 1212.000000
1456.000000 1131.000000 137.000000
1292.000000 1421.000000 468.000000
1321.000000 1467.000000 644.000000
1046.000000 1421.000000 738.000000
1041.000000 1421.000000 1714.000000
1046.000000 1307.000000 393.000000
1197.000000 1307.000000 1768.000000
1145.000000 1216.000000 143.000000
691.000000 1421.000000 535.000000
956.000000 1307.000000 658.000000
620.000000 1421.000000 1875.000000
374.000000 1467.000000 544.000000
809.000000 1307.000000 1768.000000
1534.000000 1467.000000 1051.000000
1546.000000 1089.000000 1865.000000
634.000000 1421.000000 146.000000
1456.000000 577.000000 137.000000
365.000000 1423.000000 805.000000
1046.000000 1217.000000 1245.000000
1456.000000 910.000000 1774.000000
506.000000 1336.000000 1774.000000
1415.000000 1467.000000 1519.000000
1491.000000 1467.000000 1761.000000
1179.000000 1421.000000 127.000000
1283.000000 1467.000000 1458.000000
909.000000 1421.000000 558.000000
1624.000000 1467.000000 1638.000000
456.000000 1149.000000 228.000000
1089.000000 1421.000000 506.000000
1358.000000 1467.000000 1278.000000
1254.000000 1421.000000 880.000000
546.000000 1094.000000 1865.000000
947.000000 1302.000000 1859.000000
1524.000000 1467.000000 601.000000
456.000000 920.000000 1774.000000
1546.000000 546.000000 1865.000000
847.000000 1467.000000 1074.000000
956.000000 1307.000000 1690.000000
1453.000000 1421.000000 341.000000
1112.000000 1421.000000 980.000000
1292.000000 1467.000000 1699.000000
1373.000000 1421.000000 1136.000000
662.000000 1421.000000 1467.000000
483.000000 1421.000000 1908.000000
1330.000000 1307.000000 229.000000
1046.000000 1302.000000 1467.000000
473.000000 1421.000000 473.000000
1503.000000 1302.000000 1774.000000
1546.000000 663.000000 143.000000
1330.000000 1307.000000 1859.000000
393.000000 1421.000000 1051.000000
1515.000000 1421.000000 1311.000000
634.000000 1467.000000 790.000000
393.000000 1421.000000 293.000000
923.000000 1307.000000 138.000000
1046.000000 1307.000000 880.000000
838.000000 1421.000000 1567.000000
487.000000 1423.000000 1.000000
601.000000 1421.000000 336.000000
1425.000000 1467.000000 1893.000000
1046.000000 1216.000000 591.000000
1483.000000 1165.000000 1774.000000
956.000000 1226.000000 1032.000000
546.000000 814.000000 1850.000000
1496.000000 977.000000 1865.000000
1325.000000 1421.000000 56.000000
1637.000000 1423.000000 388.000000
1363.000000 1467.000000 913.000000
1637.000000 1423.000000 681.000000
1637.000000 1423.000000 852.000000
738.000000 1297.000000 229.000000
1474.000000 652.000000 1774.000000
464.000000 1074.000000 137.000000
1546.000000 1058.000000 160.000000
961.000000 1216.000000 459.000000
984.000000 1467.000000 180.000000
724.000000 1467.000000 984.000000
1430.000000 1216.000000 229.000000
672.000000 1467.000000 1969.000000
546.000000 1344.000000 137.000000
1122.000000 1421.000000 648.000000
1141.000000 1467.000000 1330.000000
1396.000000 1421.000000 1676.000000
1179.000000 1465.000000 2001.000000
1131.000000 1216.000000 1793.000000
965.000000 1467.000000 1269.000000
1396.000000 1467.000000 435.000000
457.000000 1006.000000 1865.000000
545.000000 1003.000000 1774.000000
696.000000 1216.000000 1769.000000
847.000000 1467.000000 852.000000
1108.000000 1465.000000 1.000000
809.000000 1421.000000 1894.000000
994.000000 1465.000000 1.000000
1013.000000 1467.000000 1160.000000
961.000000 1465.000000 2001.000000
1524.000000 1421.000000 1529.000000
459.000000 1421.000000 871.000000
1197.000000 1421.000000 1633.000000
1264.000000 1467.000000 1808.000000
1079.000000 1307.000000 138.000000
1595.000000 1467.000000 1856.000000
932.000000 1421.000000 90.000000
634.000000 1467.000000 1770.000000
956.000000 1307.000000 1401.000000
506.000000 1467.000000 1680.000000
805.000000 1307.000000 138.000000
1046.000000 1216.000000 1098.000000
970.000000 1216.000000 1628.000000
1013.000000 1216.000000 1818.000000
1098.000000 1467.000000 189.000000
1060.000000 1421.000000 383.000000
1543.000000 1467.000000 937.000000
776.000000 1423.000000 1.000000
610.000000 1216.000000 1859.000000
847.000000 1467.000000 1259.000000
899.000000 1421.000000 1463.000000
1179.000000 1421.000000 1235.000000
923.000000 1467.000000 984.000000
1046.000000 1307.000000 1183.000000
445.000000 1465.000000 2001.000000
1510.000000 1235.000000 137.000000
809.000000 1467.000000 265.000000
464.000000 1467.000000 374.000000
956.000000 1231.000000 232.000000
1032.000000 1216.000000 823.000000
487.000000 1421.000000 686.000000
942.000000 1421.000000 667.000000
956.000000 1421.000000 1647.000000
1439.000000 1283.000000 1859.000000
729.000000 1467.000000 700.000000
538.000000 1237.000000 228.000000
1354.000000 1421.000000 246.000000
1278.000000 1421.000000 1084.000000
932.000000 1467.000000 274.000000
1567.000000 1421.000000 1216.000000
1534.000000 1421.000000 42.000000
625.000000 1250.000000 138.000000
1330.000000 1421.000000 1908.000000
1207.000000 1467.000000 1538.000000
454.000000 1421.000000 1519.000000
833.000000 1421.000000 1789.000000
416.000000 1421.000000 85.000000
705.000000 1467.000000 1382.000000
980.000000 1421.000000 1808.000000
1546.000000 733.000000 228.000000
1456.000000 733.000000 138.000000
1287.000000 1250.000000 1768.000000
956.000000 1307.000000 965.000000
456.000000 1149.000000 1850.000000
456.000000 866.000000 1865.000000
1456.000000 600.000000 1864.000000
1546.000000 964.000000 1774.000000
672.000000 1216.000000 229.000000
456.000000 1404.000000 207.000000
871.000000 1217.000000 138.000000
546.000000 1305.000000 1865.000000
1401.000000 1421.000000 127.000000
1506.000000 772.000000 1865.000000
1089.000000 1217.000000 229.000000
587.000000 1421.000000 544.000000
503.000000 788.000000 228.000000
456.000000 743.000000 1865.000000
546.000000 834.000000 137.000000
719.000000 1307.000000 1859.000000
1032.000000 1467.000000 828.000000
1046.000000 1307.000000 1335.000000
601.000000 1467.000000 232.000000
1041.000000 1421.000000 1524.000000
1553.000000 1421.000000 1695.000000
1546.000000 725.000000 1776.000000
545.000000 741.000000 1774.000000
847.000000 1283.000000 1859.000000
1453.000000 1467.000000 781.000000
634.000000 1421.000000 1572.000000
700.000000 1467.000000 1690.000000
1472.000000 1421.000000 1117.000000
1155.000000 1421.000000 1827.000000
546.000000 1001.000000 137.000000
1619.000000 1421.000000 1411.000000
762.000000 1421.000000 189.000000
1269.000000 1421.000000 1993.000000
1456.000000 1313.000000 228.000000
1046.000000 1216.000000 980.000000
1456.000000 1133.000000 1865.000000
1041.000000 1467.000000 1335.000000
558.000000 1421.000000 857.000000
956.000000 1307.000000 298.000000
819.000000 1467.000000 743.000000
715.000000 1421.000000 894.000000
412.000000 1421.000000 1240.000000
1131.000000 1467.000000 762.000000
506.000000 699.000000 137.000000
426.000000 1467.000000 1841.000000
1541.000000 824.000000 1774.000000
456.000000 652.000000 228.000000
1546.000000 980.000000 228.000000
1456.000000 983.000000 137.000000
456.000000 1219.000000 140.000000
546.000000 879.000000 1775.000000
965.000000 1421.000000 355.000000
1245.000000 1307.000000 138.000000
1240.000000 1216.000000 229.000000
956.000000 1307.000000 1553.000000
956.000000 1216.000000 757.000000
1046.000000 1216.000000 1557.000000
456.000000 868.000000 190.000000
1548.000000 1421.000000 516.000000
1546.000000 585.000000 1774.000000
546.000000 572.000000 1774.000000
546.000000 572.000000 137.000000
1169.000000 1283.000000 1859.000000
456.000000 574.000000 1865.000000
549.000000 1467.000000 1051.000000
672.000000 1467.000000 1287.000000
757.000000 1421.000000 1065.000000
1368.000000 1216.000000 1859.000000
1637.000000 1423.000000 194.000000
932.000000 1421.000000 1084.000000
1245.000000 1421.000000 331.000000
1316.000000 1421.000000 989.000000
1503.000000 1399.000000 137.000000
890.000000 1421.000000 454.000000
1041.000000 1307.000000 1742.000000
1126.000000 1421.000000 1922.000000
871.000000 1467.000000 1647.000000
516.000000 1421.000000 1595.000000
1330.000000 1467.000000 544.000000
876.000000 1421.000000 1988.000000
1624.000000 1467.000000 473.000000
956.000000 1226.000000 558.000000
1483.000000 1115.000000 228.000000
1460.000000 832.000000 137.000000
456.000000 535.000000 194.000000
487.000000 957.000000 228.000000
456.000000 1222.000000 1774.000000
546.000000 1375.000000 228.000000
1546.000000 829.000000 224.000000
1046.000000 1307.000000 762.000000
1046.000000 1307.000000 625.000000
956.000000 1307.000000 426.000000
1179.000000 1467.000000 918.000000
369.000000 1467.000000 1690.000000
847.000000 1467.000000 109.000000
601.000000 1467.000000 1131.000000
1553.000000 1421.000000 341.000000
1207.000000 1467.000000 478.000000
554.000000 1467.000000 1420.000000
1456.000000 1383.000000 1790.000000
568.000000 1467.000000 705.000000
795.000000 1467.000000 388.000000
767.000000 1467.000000 568.000000
456.000000 1347.000000 1854.000000
1018.000000 1421.000000 1922.000000
1046.000000 1231.000000 312.000000
421.000000 1467.000000 743.000000
700.000000 1307.000000 143.000000
1543.000000 1421.000000 686.000000
956.000000 1216.000000 1311.000000
715.000000 1421.000000 1898.000000
1546.000000 1412.000000 228.000000
1046.000000 1216.000000 416.000000
1212.000000 1467.000000 809.000000
1456.000000 850.000000 1846.000000
1122.000000 1421.000000 312.000000
999.000000 1421.000000 530.000000
975.000000 1216.000000 653.000000
454.000000 1421.000000 1742.000000
1060.000000 1467.000000 918.000000
1524.000000 1467.000000 1917.000000
1614.000000 1421.000000 1065.000000
790.000000 1216.000000 1769.000000
1546.000000 1068.000000 1774.000000
1546.000000 554.000000 137.000000
1456.000000 559.000000 228.000000
1306.000000 1421.000000 724.000000
1456.000000 694.000000 1855.000000
378.000000 1421.000000 1401.000000
1535.000000 629.000000 228.000000
970.000000 1307.000000 1074.000000
1546.000000 1149.000000 144.000000
546.000000 1133.000000 218.000000
904.000000 1307.000000 1778.000000
1335.000000 1216.000000 219.000000
1463.000000 772.000000 228.000000
545.000000 1097.000000 1774.000000
1321.000000 1467.000000 1373.000000
805.000000 1467.000000 1368.000000
1373.000000 1467.000000 1600.000000
1439.000000 1467.000000 1330.000000
814.000000 1421.000000 1183.000000
1411.000000 1467.000000 620.000000
1546.000000 1383.000000 1778.000000
1264.000000 1421.000000 236.000000
904.000000 1467.000000 1827.000000
1117.000000 1467.000000 1188.000000
918.000000 1216.000000 1859.000000
546.000000 1391.000000 1833.000000
776.000000 1216.000000 219.000000
719.000000 1307.000000 1768.000000
1131.000000 1421.000000 1524.000000
1453.000000 1467.000000 947.000000
430.000000 1421.000000 596.000000
715.000000 1421.000000 1221.000000
700.000000 1467.000000 23.000000
558.000000 1467.000000 1922.000000
1245.000000 1421.000000 639.000000
596.000000 1467.000000 80.000000
456.000000 702.000000 1786.000000
1254.000000 1467.000000 85.000000
365.000000 1465.000000 1572.000000
1467.000000 1421.000000 464.000000
587.000000 1421.000000 984.000000
1349.000000 1467.000000 1060.000000
1543.000000 1467.000000 1145.000000
1287.000000 1421.000000 1254.000000
1458.000000 1421.000000 1458.000000
719.000000 1421.000000 625.000000
1501.000000 1467.000000 284.000000
748.000000 1421.000000 312.000000
999.000000 1307.000000 181.000000
1046.000000 1236.000000 501.000000
1117.000000 1421.000000 1671.000000
454.000000 1467.000000 1179.000000
1032.000000 1216.000000 1467.000000
1340.000000 1421.000000 1505.000000
677.000000 1467.000000 459.000000
1216.000000 1421.000000 1415.000000
535.000000 1421.000000 397.000000
1548.000000 1421.000000 838.000000
1546.000000 1227.000000 1778.000000
1098.000000 1421.000000 1392.000000
525.000000 1201.000000 1865.000000
880.000000 1467.000000 625.000000
1637.000000 1423.000000 90.000000
1546.000000 1310.000000 1848.000000
956.000000 1222.000000 1425.000000
464.000000 1467.000000 1065.000000
1103.000000 1467.000000 577.000000
1259.000000 1467.000000 402.000000
970.000000 1421.000000 1349.000000
1155.000000 1467.000000 1041.000000
440.000000 1421.000000 1321.000000
956.000000 1297.000000 880.000000
1330.000000 1297.000000 138.000000
587.000000 1467.000000 1278.000000
369.000000 1423.000000 2001.000000
961.000000 1216.000000 1226.000000
672.000000 1421.000000 1141.000000
1368.000000 1217.000000 138.000000
469.000000 658.000000 1865.000000
1637.000000 1465.000000 1235.000000
1429.000000 1421.000000 1965.000000
644.000000 1467.000000 591.000000
1377.000000 1467.000000 715.000000
528.000000 658.000000 1774.000000
1027.000000 1467.000000 1643.000000
1212.000000 1467.000000 1112.000000
918.000000 1421.000000 833.000000
1013.000000 1421.000000 975.000000
530.000000 1261.000000 137.000000
1089.000000 1467.000000 1770.000000
563.000000 1274.000000 1768.000000
1122.000000 1467.000000 85.000000
1055.000000 1421.000000 1103.000000
546.000000 918.000000 152.000000
546.000000 1092.000000 144.000000
558.000000 1421.000000 1737.000000
790.000000 1467.000000 1515.000000
539.000000 1467.000000 1188.000000
1586.000000 1467.000000 1562.000000
525.000000 1421.000000 1330.000000
558.000000 1421.000000 634.000000
1250.000000 1307.000000 1835.000000
426.000000 1467.000000 989.000000
516.000000 1467.000000 913.000000
1456.000000 1050.000000 1858.000000
1396.000000 1421.000000 1216.000000
1108.000000 1467.000000 435.000000
1415.000000 1467.000000 279.000000
464.000000 1360.000000 137.000000
1637.000000 1423.000000 767.000000
1212.000000 1216.000000 1774.000000
672.000000 1467.000000 336.000000
1160.000000 1307.000000 158.000000
525.000000 1467.000000 194.000000
456.000000 728.000000 197.000000
1216.000000 1467.000000 184.000000
1605.000000 1467.000000 620.000000
1240.000000 1421.000000 1742.000000
1411.000000 1467.000000 1742.000000
1387.000000 1421.000000 847.000000
1482.000000 1467.000000 530.000000
1084.000000 1226.000000 1859.000000
456.000000 1068.000000 218.000000
558.000000 1467.000000 4.000000
1122.000000 1293.000000 229.000000
1439.000000 1421.000000 1586.000000
781.000000 1467.000000 904.000000
546.000000 616.000000 206.000000
923.000000 1307.000000 224.000000
790.000000 1467.000000 1614.000000
546.000000 616.000000 1842.000000
743.000000 1421.000000 468.000000
700.000000 1467.000000 161.000000
1117.000000 1293.000000 1768.000000
1456.000000 941.000000 206.000000
546.000000 1014.000000 1854.000000
1046.000000 1297.000000 1103.000000
1491.000000 1467.000000 94.000000
909.000000 1467.000000 904.000000
904.000000 1421.000000 1297.000000
1264.000000 1421.000000 549.000000
1278.000000 1421.000000 800.000000
965.000000 1467.000000 1467.000000
440.000000 1467.000000 151.000000
456.000000 535.000000 1794.000000
1169.000000 1421.000000 37.000000
975.000000 1269.000000 1768.000000
700.000000 1421.000000 1756.000000
530.000000 1467.000000 506.000000
1501.000000 1421.000000 994.000000
1486.000000 1467.000000 1841.000000
1572.000000 1467.000000 1775.000000
1519.000000 1263.000000 228.000000
1363.000000 1465.000000 1.000000
1456.000000 1209.000000 1835.000000
1546.000000 1157.000000 1822.000000
1472.000000 1421.000000 1699.000000
965.000000 1216.000000 1709.000000
1037.000000 1421.000000 217.000000
1456.000000 655.000000 152.000000
681.000000 1421.000000 743.000000
913.000000 1467.000000 393.000000
1070.000000 1467.000000 1463.000000
871.000000 1421.000000 705.000000
1344.000000 1307.000000 1778.000000
456.000000 998.000000 1786.000000
984.000000 1467.000000 719.000000
577.000000 1467.000000 1614.000000
1065.000000 1467.000000 677.000000
1183.000000 1467.000000 667.000000
644.000000 1421.000000 857.000000
729.000000 1421.000000 1633.000000
828.000000 1421.000000 544.000000
416.000000 1467.000000 232.000000
1046.000000 1236.000000 1633.000000
546.000000 759.000000 169.000000
1572.000000 1421.000000 1960.000000
487.000000 1467.000000 1463.000000
1387.000000 1467.000000 189.000000
686.000000 1421.000000 85.000000
1523.000000 905.000000 228.000000
970.000000 1307.000000 1207.000000
984.000000 1421.000000 786.000000
1046.000000 1231.000000 899.000000
956.000000 1288.000000 1477.000000
1477.000000 1421.000000 1382.000000
686.000000 1236.000000 1859.000000
407.000000 1467.000000 473.000000
426.000000 1421.000000 1122.000000
1562.000000 1467.000000 1354.000000
460.000000 1227.000000 228.000000
397.000000 1467.000000 861.000000
956.000000 1231.000000 838.000000
724.000000 1467.000000 1458.000000
781.000000 1467.000000 1747.000000
1485.000000 1323.000000 137.000000
1340.000000 1421.000000 407.000000
365.000000 1423.000000 1860.000000
1546.000000 866.000000 156.000000
573.000000 1421.000000 776.000000
1619.000000 1467.000000 913.000000
984.000000 1467.000000 1870.000000
1046.000000 1293.000000 1259.000000
1425.000000 1467.000000 1074.000000
634.000000 1421.000000 407.000000
696.000000 1467.000000 1084.000000
1226.000000 1467.000000 1278.000000
1278.000000 1467.000000 937.000000
866.000000 1467.000000 1927.000000
847.000000 1216.000000 1821.000000
800.000000 1467.000000 1013.000000
1477.000000 907.000000 137.000000
1335.000000 1467.000000 1846.000000
1155.000000 1421.000000 213.000000
1553.000000 1421.000000 1614.000000
1363.000000 1467.000000 1448.000000
634.000000 1467.000000 1411.000000
480.000000 1149.000000 1774.000000
620.000000 1216.000000 1783.000000
648.000000 1467.000000 994.000000
989.000000 1467.000000 1747.000000
1572.000000 1467.000000 1278.000000
1576.000000 1467.000000 1486.000000
1164.000000 1421.000000 525.000000
1456.000000 1058.000000 160.000000
1179.000000 1467.000000 341.000000
1018.000000 1216.000000 1174.000000
776.000000 1467.000000 1231.000000
838.000000 1421.000000 47.000000
1340.000000 1467.000000 1188.000000
871.000000 1421.000000 265.000000
876.000000 1467.000000 1519.000000
1259.000000 1467.000000 1628.000000
1510.000000 1467.000000 170.000000
1164.000000 1216.000000 219.000000
871.000000 1421.000000 1018.000000
984.000000 1421.000000 1212.000000
847.000000 1467.000000 1434.000000
1505.000000 1421.000000 752.000000
653.000000 1467.000000 1628.000000
644.000000 1421.000000 274.000000
449.000000 1467.000000 535.000000
1453.000000 1421.000000 1269.000000
449.000000 1421.000000 795.000000
861.000000 1421.000000 1709.000000
1273.000000 1467.000000 1931.000000
539.000000 1421.000000 61.000000
667.000000 1467.000000 1837.000000
1463.000000 1467.000000 402.000000
857.000000 1421.000000 790.000000
999.000000 1421.000000 1586.000000
435.000000 1467.000000 658.000000
989.000000 1467.000000 104.000000
1430.000000 1307.000000 1788.000000
1546.000000 1022.000000 1833.000000
700.000000 1467.000000 833.000000
1358.000000 1421.000000 596.000000
456.000000 1146.000000 153.000000
1595.000000 1467.000000 47.000000
546.000000 1305.000000 200.000000
1637.000000 1423.000000 1898.000000
1046.000000 1307.000000 468.000000
909.000000 1421.000000 1590.000000
587.000000 1467.000000 1827.000000
1032.000000 1421.000000 459.000000
918.000000 1467.000000 146.000000
819.000000 1467.000000 180.000000
1264.000000 1421.000000 1515.000000
923.000000 1467.000000 501.000000
587.000000 1421.000000 1467.000000
1325.000000 1421.000000 1652.000000
762.000000 1467.000000 1931.000000
558.000000 1421.000000 146.000000
473.000000 1079.000000 1865.000000
459.000000 1467.000000 1581.000000
1311.000000 1467.000000 861.000000
1467.000000 1421.000000 591.000000
1046.000000 1288.000000 951.000000
1027.000000 1307.000000 1666.000000
833.000000 1421.000000 1316.000000
1363.000000 1421.000000 487.000000
369.000000 1467.000000 345.000000
724.000000 1421.000000 1993.000000
1396.000000 1421.000000 771.000000
629.000000 1467.000000 1515.000000
468.000000 1421.000000 317.000000
937.000000 1421.000000 14.000000
1051.000000 1421.000000 14.000000
544.000000 1467.000000 341.000000
1456.000000 977.000000 1803.000000
1546.000000 894.000000 1795.000000
456.000000 936.000000 1845.000000
421.000000 1421.000000 1946.000000
456.000000 1292.000000 1803.000000
1439.000000 1216.000000 153.000000
1609.000000 1467.000000 1709.000000
464.000000 1467.000000 56.000000
861.000000 1467.000000 1150.000000
1546.000000 655.000000 1795.000000
800.000000 1231.000000 138.000000
956.000000 1293.000000 587.000000
951.000000 1467.000000 596.000000
1522.000000 1053.000000 228.000000
606.000000 1216.000000 200.000000
1212.000000 1421.000000 1055.000000
1344.000000 1467.000000 108.000000
620.000000 1421.000000 1950.000000
1070.000000 1467.000000 1941.000000
1169.000000 1467.000000 1884.000000
1193.000000 1421.000000 1164.000000
1456.000000 1370.000000 183.000000
456.000000 1406.000000 1813.000000
1401.000000 1467.000000 359.000000
1595.000000 1467.000000 1013.000000
984.000000 1307.000000 724.000000
1340.000000 1421.000000 1728.000000
942.000000 1421.000000 217.000000
1212.000000 1241.000000 138.000000
365.000000 1465.000000 615.000000
497.000000 1421.000000 1979.000000
1084.000000 1467.000000 1055.000000
1126.000000 1467.000000 1259.000000
1420.000000 1467.000000 1813.000000
1259.000000 1467.000000 696.000000
672.000000 1421.000000 208.000000
634.000000 1467.000000 516.000000
421.000000 1421.000000 932.000000
525.000000 811.000000 1774.000000
1022.000000 1307.000000 326.000000
1306.000000 1467.000000 274.000000
805.000000 1467.000000 1837.000000
1496.000000 1465.000000 1.000000
421.000000 1467.000000 1434.000000
1013.000000 1274.000000 1859.000000
1193.000000 1421.000000 1482.000000
1108.000000 1467.000000 260.000000
1065.000000 1421.000000 1174.000000
516.000000 1467.000000 1865.000000
1425.000000 1467.000000 1150.000000
1278.000000 1421.000000 1860.000000
1183.000000 1421.000000 975.000000
1457.000000 918.000000 1865.000000
1464.000000 1243.000000 1774.000000
937.000000 1216.000000 162.000000
456.000000 1006.000000 185.000000
1046.000000 1241.000000 1311.000000
947.000000 1467.000000 1136.000000
1316.000000 1467.000000 1122.000000
1022.000000 1216.000000 208.000000
1321.000000 1421.000000 1316.000000
1112.000000 1467.000000 364.000000
549.000000 1421.000000 1240.000000
984.000000 1421.000000 284.000000
1013.000000 1421.000000 667.000000
1108.000000 1421.000000 137.000000
809.000000 1421.000000 1112.000000
1216.000000 1467.000000 1685.000000
1079.000000 1421.000000 800.000000
1473.000000 842.000000 1774.000000
715.000000 1421.000000 1515.000000
1491.000000 1467.000000 667.000000
1633.000000 1421.000000 1586.000000
365.000000 1465.000000 104.000000
1018.000000 1467.000000 350.000000
1581.000000 1467.000000 203.000000
786.000000 1307.000000 1835.000000
546.000000 642.000000 141.000000
1250.000000 1421.000000 142.000000
558.000000 1421.000000 279.000000
1396.000000 1278.000000 229.000000
795.000000 1421.000000 852.000000
1586.000000 1421.000000 435.000000
1306.000000 1216.000000 1826.000000
1202.000000 1467.000000 1363.000000
1368.000000 1467.000000 984.000000
487.000000 587.000000 228.000000
1456.000000 1352.000000 1852.000000
1283.000000 1423.000000 1.000000
1079.000000 1236.000000 138.000000
1046.000000 1278.000000 1401.000000
956.000000 1283.000000 1619.000000
866.000000 1307.000000 177.000000
1013.000000 1421.000000 1292.000000
795.000000 1421.000000 127.000000
456.000000 855.000000 1797.000000
374.000000 1421.000000 984.000000
1046.000000 1288.000000 696.000000
1089.000000 1421.000000 1316.000000
1373.000000 1421.000000 312.000000
1377.000000 1421.000000 662.000000
1478.000000 535.000000 1865.000000
1524.000000 611.000000 1865.000000
1046.000000 1467.000000 142.000000
435.000000 1421.000000 416.000000
677.000000 1421.000000 951.000000
672.000000 1467.000000 1193.000000
1155.000000 1216.000000 1859.000000
961.000000 1421.000000 1022.000000
1477.000000 1467.000000 1548.000000
1065.000000 1245.000000 1768.000000
546.000000 980.000000 202.000000
639.000000 1467.000000 715.000000
