ply
format ascii 1.0
element vertex 900
property float x
property float y
property float z
end_header
26790.000000 35459.000000 154828.000000
34641.000000 8842.000000 27.000000
22386.000000 53598.000000 71589.000000
37322.000000 113.000000 102801.000000
25258.000000 63371.000000 15100.000000
41821.000000 12864.000000 49568.000000
1790.000000 31821.000000 109120.000000
46216.000000 44267.000000 113716.000000
51642.000000 32395.000000 79248.000000
51724.000000 18417.000000 136886.000000
17407.000000 55661.000000 128652.000000
18556.000000 41750.000000 40185.000000
21555.000000 22055.000000 84993.000000
43066.000000 30411.000000 22568.000000
24385.000000 17842.000000 123673.000000
59417.000000 18608.000000 108546.000000
20659.000000 51735.000000 100312.000000
11662.000000 43310.000000 128.000000
46068.000000 43502.000000 139567.000000
37130.000000 33722.000000 60291.000000
39775.000000 50778.000000 87099.000000
39252.000000 14204.000000 72546.000000
41343.000000 34119.000000 86.000000
41859.000000 20140.000000 94759.000000
15301.000000 35711.000000 61057.000000
17917.000000 35076.000000 135162.000000
13026.000000 40821.000000 84610.000000
16951.000000 18800.000000 104716.000000
32534.000000 21098.000000 167455.000000
28130.000000 57846.000000 33866.000000
33300.000000 24142.000000 140141.000000
43258.000000 17268.000000 119267.000000
28896.000000 51396.000000 143588.000000
29279.000000 50204.000000 53849.000000
6999.000000 49821.000000 113716.000000
33683.000000 25976.000000 38461.000000
56087.000000 30585.000000 123099.000000
35981.000000 53743.000000 126354.000000
50981.000000 36416.000000 97439.000000
27173.000000 53842.000000 57.000000
20215.000000 48097.000000 21802.000000
34233.000000 41970.000000 74270.000000
14214.000000 36034.000000 119078.000000
47279.000000 18432.000000 33100.000000
40861.000000 20715.000000 9547.000000
23152.000000 19710.000000 152205.000000
25856.000000 28440.000000 70823.000000
14078.000000 36799.000000 100120.000000
36364.000000 50723.000000 102801.000000
46513.000000 29523.000000 146999.000000
29854.000000 11812.000000 110269.000000
47279.000000 21825.000000 61248.000000
25066.000000 52518.000000 115248.000000
31960.000000 19055.000000 59716.000000
25258.000000 54958.000000 86333.000000
49194.000000 9417.000000 102498.000000
18822.000000 55565.000000 44972.000000
15597.000000 50204.000000 59142.000000
28130.000000 15541.000000 96099.000000
44180.000000 27034.000000 48227.000000
15301.000000 48055.000000 140716.000000
39141.000000 30289.000000 159098.000000
56853.000000 16615.000000 122524.000000
55559.000000 32778.000000 136886.000000
25066.000000 32551.000000 168098.000000
52748.000000 30480.000000 109695.000000
12428.000000 44217.000000 71397.000000
50726.000000 42593.000000 126737.000000
46818.000000 20140.000000 82120.000000
35981.000000 15353.000000 130355.000000
31536.000000 51544.000000 15483.000000
38279.000000 39863.000000 149782.000000
34045.000000 17459.000000 84418.000000
36641.000000 19183.000000 25249.000000
23917.000000 38516.000000 51674.000000
14858.000000 23395.000000 116588.000000
45271.000000 37565.000000 69482.000000
36173.000000 32267.000000 12036.000000
16449.000000 53076.000000 32802.000000
14918.000000 32441.000000 75418.000000
48982.000000 42161.000000 86525.000000
20337.000000 53076.000000 10313.000000
26790.000000 45698.000000 31951.000000
22308.000000 22629.000000 134779.000000
35215.000000 21314.000000 151822.000000
44407.000000 30135.000000 34632.000000
13806.000000 44076.000000 128077.000000
16258.000000 26076.000000 95046.000000
47853.000000 30480.000000 9329.000000
37322.000000 52059.000000 114673.000000
24300.000000 30672.000000 144250.000000
21479.000000 22246.000000 163694.000000
40768.000000 15426.000000 107971.000000
31209.000000 48863.000000 65270.000000
29554.000000 50012.000000 42291.000000
5726.000000 25885.000000 100056.000000
44981.000000 46449.000000 96482.000000
32821.000000 19949.000000 48227.000000
51063.000000 25119.000000 99546.000000
15492.000000 54033.000000 104.000000
32561.000000 61310.000000 6675.000000
38067.000000 15544.000000 39036.000000
16030.000000 50970.000000 80589.000000
13302.000000 41970.000000 50142.000000
22960.000000 41692.000000 146269.000000
10896.000000 47140.000000 103481.000000
14918.000000 56692.000000 117737.000000
15875.000000 27608.000000 126943.000000
33109.000000 19949.000000 9.000000
21738.000000 58820.000000 24674.000000
37896.000000 50970.000000 136993.000000
29133.000000 18417.000000 74461.000000
48436.000000 24544.000000 71972.000000
27556.000000 55587.000000 133439.000000
31577.000000 52225.000000 77716.000000
40960.000000 12789.000000 60674.000000
47279.000000 20262.000000 22185.000000
4960.000000 21453.000000 110078.000000
50323.000000 27800.000000 89014.000000
26407.000000 34451.000000 61631.000000
16071.000000 48672.000000 91120.000000
57236.000000 15161.000000 98731.000000
44459.000000 23970.000000 164.000000
33492.000000 13469.000000 120226.000000
32726.000000 54717.000000 93801.000000
50608.000000 14012.000000 111801.000000
58194.000000 23587.000000 130539.000000
15576.000000 30672.000000 85759.000000
20854.000000 15386.000000 113907.000000
34584.000000 29714.000000 51100.000000
47746.000000 18608.000000 43440.000000
10130.000000 37757.000000 109820.000000
61266.000000 24161.000000 116971.000000
46130.000000 15501.000000 128843.000000
35215.000000 28633.000000 28696.000000
43258.000000 22489.000000 140524.000000
43066.000000 47628.000000 122716.000000
43449.000000 42107.000000 78291.000000
51721.000000 40055.000000 106631.000000
22834.000000 61118.000000 5143.000000
32534.000000 36458.000000 162928.000000
51934.000000 36991.000000 116971.000000
17180.000000 51735.000000 109503.000000
20496.000000 28183.000000 156035.000000
28692.000000 52118.000000 24866.000000
46334.000000 31438.000000 62014.000000
34066.000000 33544.000000 69424.000000
14152.000000 45547.000000 118503.000000
27939.000000 53672.000000 106248.000000
29662.000000 17921.000000 158907.000000
40577.000000 8104.000000 98780.000000
12045.000000 26969.000000 107014.000000
20193.000000 46374.000000 3036.000000
41534.000000 15150.000000 1887.000000
37322.000000 24659.000000 17589.000000
24109.000000 53601.000000 61248.000000
26846.000000 54225.000000 124248.000000
9962.000000 52310.000000 124248.000000
53493.000000 25693.000000 142439.000000
29662.000000 42418.000000 58568.000000
47909.000000 19757.000000 52440.000000
50726.000000 21609.000000 116588.000000
34066.000000 13086.000000 102418.000000
44296.000000 46948.000000 131524.000000
43693.000000 46182.000000 105290.000000
32151.000000 27097.000000 63546.000000
36364.000000 46757.000000 144615.000000
37709.000000 27417.000000 4760.000000
24300.000000 13821.000000 103802.000000
33492.000000 29714.000000 168467.000000
20279.000000 55271.000000 53589.000000
49768.000000 36225.000000 142586.000000
14343.000000 48202.000000 44206.000000
21237.000000 26901.000000 77908.000000
21608.000000 53842.000000 139375.000000
4386.000000 43884.000000 108092.000000
30620.000000 4247.000000 106308.000000
34832.000000 12864.000000 54521.000000
32477.000000 14970.000000 67376.000000
25942.000000 42544.000000 44397.000000
26407.000000 22246.000000 144778.000000
20196.000000 18608.000000 95716.000000
45556.000000 25502.000000 15771.000000
28086.000000 50587.000000 7823.000000
29553.000000 59778.000000 21419.000000
18556.000000 31772.000000 67759.000000
39045.000000 28757.000000 150803.000000
45747.000000 17233.000000 68142.000000
14610.000000 36608.000000 91695.000000
36747.000000 22345.000000 160056.000000
51875.000000 39871.000000 134588.000000
18499.000000 45033.000000 32525.000000
45747.000000 18800.000000 101965.000000
30843.000000 40629.000000 66610.000000
14257.000000 35842.000000 127503.000000
30153.000000 20332.000000 133439.000000
50726.000000 22645.000000 107397.000000
47400.000000 25502.000000 28504.000000
30620.000000 42736.000000 149122.000000
13003.000000 50395.000000 133214.000000
20854.000000 58234.000000 37504.000000
16641.000000 49751.000000 67184.000000
37322.000000 47063.000000 80014.000000
34864.000000 19949.000000 33100.000000
47613.000000 26268.000000 40951.000000
39236.000000 6927.000000 106639.000000
26215.000000 54799.000000 47976.000000
42492.000000 30965.000000 54929.000000
13810.000000 41970.000000 135737.000000
33109.000000 54682.000000 85184.000000
15651.000000 44267.000000 97822.000000
14362.000000 43310.000000 63163.000000
27364.000000 18028.000000 88631.000000
40577.000000 15656.000000 80206.000000
34853.000000 17268.000000 92269.000000
7067.000000 42161.000000 115589.000000
21620.000000 49408.000000 145886.000000
11785.000000 30672.000000 113907.000000
21428.000000 54799.000000 17871.000000
40194.000000 28782.000000 41717.000000
55513.000000 35076.000000 129420.000000
24875.000000 53936.000000 94184.000000
59343.000000 26268.000000 109780.000000
63.000000 25310.000000 105290.000000
5918.000000 35459.000000 103694.000000
53789.000000 17076.000000 129581.000000
51989.000000 35076.000000 86525.000000
33979.000000 4438.000000 97439.000000
41534.000000 17797.000000 87482.000000
35407.000000 36102.000000 155843.000000
16067.000000 49055.000000 51630.000000
26215.000000 25119.000000 169170.000000
39428.000000 51381.000000 94950.000000
28705.000000 61466.000000 164.000000
23152.000000 54426.000000 79057.000000
41456.000000 18800.000000 134205.000000
22728.000000 33353.000000 161013.000000
13769.000000 37565.000000 68143.000000
42875.000000 32587.000000 15344.000000
54873.000000 13438.000000 105673.000000
51963.000000 28948.000000 116971.000000
12664.000000 39480.000000 77142.000000
41726.000000 34529.000000 7632.000000
30750.000000 58629.000000 13377.000000
36598.000000 12672.000000 113524.000000
24681.000000 48863.000000 14717.000000
56853.000000 16502.000000 115144.000000
29418.000000 21863.000000 67950.000000
22577.000000 29620.000000 137077.000000
31385.000000 54234.000000 118503.000000
48665.000000 31821.000000 72546.000000
50343.000000 15000.000000 119652.000000
45364.000000 19032.000000 112375.000000
18556.000000 22172.000000 122907.000000
44215.000000 39863.000000 145580.000000
18747.000000 39688.000000 140716.000000
26598.000000 13557.000000 117929.000000
45630.000000 17651.000000 75418.000000
26981.000000 18909.000000 81355.000000
27173.000000 56944.000000 41142.000000
12811.000000 29714.000000 100387.000000
38279.000000 24161.000000 145359.000000
47087.000000 21514.000000 89971.000000
17407.000000 37711.000000 54546.000000
52054.000000 31629.000000 102610.000000
48811.000000 38059.000000 75993.000000
22022.000000 26268.000000 149332.000000
40768.000000 18687.000000 19504.000000
20471.000000 56495.000000 122141.000000
33300.000000 25502.000000 56653.000000
28925.000000 43502.000000 51483.000000
35175.000000 24927.000000 10887.000000
49577.000000 43327.000000 119843.000000
60056.000000 24736.000000 123865.000000
30237.000000 14828.000000 126354.000000
38088.000000 47883.000000 109120.000000
48236.000000 42161.000000 100934.000000
29443.000000 51161.000000 35398.000000
34066.000000 14838.000000 77908.000000
49254.000000 25885.000000 78865.000000
29088.000000 51822.000000 71206.000000
40960.000000 17497.000000 30419.000000
36173.000000 30036.000000 21802.000000
36264.000000 14395.000000 45738.000000
49239.000000 41778.000000 93418.000000
32975.000000 19757.000000 41334.000000
17088.000000 23204.000000 110078.000000
43641.000000 45892.000000 84035.000000
14343.000000 29200.000000 120226.000000
25832.000000 45862.000000 25057.000000
39087.000000 14970.000000 124248.000000
19705.000000 41000.000000 46887.000000
39428.000000 36629.000000 66036.000000
34449.000000 26018.000000 45355.000000
39619.000000 16189.000000 99929.000000
18192.000000 53076.000000 26015.000000
11526.000000 54608.000000 111992.000000
29088.000000 53914.000000 99546.000000
52641.000000 18937.000000 102035.000000
46914.000000 25885.000000 55695.000000
15857.000000 49629.000000 73887.000000
14837.000000 43884.000000 56461.000000
42300.000000 34477.000000 149332.000000
45838.000000 24544.000000 6866.000000
56964.000000 26076.000000 136694.000000
31730.000000 54416.000000 111801.000000
15815.000000 52884.000000 39610.000000
26112.000000 36034.000000 147992.000000
24683.000000 43278.000000 37887.000000
53598.000000 37425.000000 123482.000000
19130.000000 52315.000000 86333.000000
45913.000000 16310.000000 57802.000000
45939.000000 10949.000000 108074.000000
41343.000000 31440.000000 28887.000000
21237.000000 57289.000000 1.000000
44695.000000 15544.000000 38461.000000
19896.000000 58515.000000 30993.000000
3630.000000 37948.000000 110844.000000
50421.000000 30289.000000 95142.000000
45364.000000 29854.000000 3036.000000
33875.000000 53995.000000 132673.000000
29279.000000 19338.000000 149907.000000
37896.000000 29580.000000 34823.000000
37950.000000 26842.000000 164651.000000
22577.000000 22242.000000 128269.000000
14420.000000 23395.000000 100695.000000
34460.000000 13247.000000 61248.000000
36747.000000 18225.000000 5113.000000
26981.000000 18991.000000 164741.000000
40194.000000 39863.000000 72863.000000
19896.000000 56013.000000 113524.000000
13769.000000 41944.000000 113141.000000
22141.000000 59203.000000 11270.000000
47470.000000 26368.000000 65844.000000
27364.000000 59717.000000 27738.000000
27282.000000 25119.000000 138035.000000
49194.000000 20906.000000 142392.000000
48126.000000 24544.000000 34823.000000
44392.000000 47523.000000 90163.000000
23343.000000 18919.000000 158524.000000
13258.000000 45225.000000 80014.000000
10705.000000 40821.000000 104248.000000
15784.000000 41012.000000 122716.000000
1932.000000 30672.000000 102418.000000
14152.000000 48480.000000 2892.000000
13817.000000 34885.000000 81355.000000
27173.000000 63725.000000 8972.000000
21237.000000 28566.000000 164883.000000
22273.000000 32395.000000 151630.000000
17891.000000 25502.000000 88823.000000
5535.000000 50064.000000 107588.000000
41726.000000 47775.000000 116397.000000
29088.000000 48015.000000 20079.000000
38471.000000 51606.000000 120992.000000
39549.000000 50970.000000 130758.000000
14098.000000 42736.000000 90546.000000
44215.000000 5412.000000 103184.000000
18173.000000 29331.000000 132657.000000
57947.000000 29714.000000 131716.000000
38471.000000 13308.000000 66419.000000
25487.000000 23395.000000 75035.000000
9647.000000 53459.000000 118120.000000
44981.000000 13055.000000 99789.000000
31051.000000 53842.000000 138226.000000
35790.000000 19968.000000 136311.000000
57811.000000 29050.000000 115056.000000
40960.000000 46866.000000 140524.000000
33982.000000 24736.000000 24100.000000
30417.000000 55757.000000 5143.000000
21811.000000 53959.000000 106056.000000
6022.000000 27225.000000 108163.000000
21428.000000 55757.000000 133324.000000
18364.000000 55948.000000 5299.000000
41917.000000 13360.000000 43440.000000
32751.000000 46948.000000 71014.000000
21045.000000 35229.000000 58759.000000
16258.000000 46980.000000 38078.000000
51304.000000 41204.000000 112567.000000
16449.000000 46956.000000 105865.000000
17790.000000 44502.000000 144928.000000
56295.000000 22629.000000 105099.000000
32459.000000 22821.000000 146077.000000
28896.000000 50240.000000 59908.000000
14817.000000 47523.000000 85376.000000
50475.000000 38331.000000 81738.000000
28959.000000 48480.000000 48036.000000
22003.000000 34693.000000 140422.000000
37705.000000 23778.000000 41.000000
9548.000000 32358.000000 107397.000000
46896.000000 23315.000000 95716.000000
26981.000000 47140.000000 147518.000000
20338.000000 17842.000000 119269.000000
14657.000000 31821.000000 95142.000000
32343.000000 18133.000000 53780.000000
20279.000000 30151.000000 73121.000000
41408.000000 49055.000000 100312.000000
22003.000000 60544.000000 19090.000000
9173.000000 47939.000000 120418.000000
36747.000000 32571.000000 164077.000000
20471.000000 15267.000000 107971.000000
17981.000000 26149.000000 82695.000000
26791.000000 37565.000000 56653.000000
51492.000000 30863.000000 144292.000000
24300.000000 31615.000000 66227.000000
47406.000000 18991.000000 122907.000000
31194.000000 37675.000000 151822.000000
22003.000000 19566.000000 90327.000000
25641.000000 53543.000000 66802.000000
20471.000000 45756.000000 27164.000000
14918.000000 55374.000000 123468.000000
11471.000000 50145.000000 108354.000000
37570.000000 25693.000000 155460.000000
23917.000000 50951.000000 3802.000000
46704.000000 16693.000000 107304.000000
50643.000000 14164.000000 99546.000000
40960.000000 11461.000000 103567.000000
33110.000000 50778.000000 107588.000000
34469.000000 14395.000000 1504.000000
43066.000000 20140.000000 4255.000000
38853.000000 29235.000000 47270.000000
42492.000000 18988.000000 25057.000000
46704.000000 42333.000000 108354.000000
29854.000000 53698.000000 30227.000000
46346.000000 25885.000000 21419.000000
28392.000000 54991.000000 81546.000000
35215.000000 12687.000000 107971.000000
19828.000000 51352.000000 94567.000000
35024.000000 5996.000000 102801.000000
48236.000000 30480.000000 14985.000000
26981.000000 35855.000000 163886.000000
49385.000000 24637.000000 84418.000000
53024.000000 35858.000000 111418.000000
40577.000000 12289.000000 55057.000000
27173.000000 18991.000000 128708.000000
46130.000000 18650.000000 137460.000000
54555.000000 10374.000000 100970.000000
49002.000000 43898.000000 131907.000000
51370.000000 9608.000000 107780.000000
57811.000000 13583.000000 110461.000000
50557.000000 35842.000000 91886.000000
4960.000000 22629.000000 104606.000000
17215.000000 52693.000000 136091.000000
47851.000000 19949.000000 27738.000000
45939.000000 16502.000000 48352.000000
39236.000000 2715.000000 98240.000000
47990.000000 23587.000000 45929.000000
40960.000000 16042.000000 114290.000000
29721.000000 54416.000000 19887.000000
33683.000000 15130.000000 97248.000000
32309.000000 24544.000000 51291.000000
14881.000000 42736.000000 44780.000000
30237.000000 54945.000000 128652.000000
22960.000000 55615.000000 127886.000000
24761.000000 52884.000000 55695.000000
19905.000000 23204.000000 158332.000000
20662.000000 16908.000000 101078.000000
46331.000000 32587.000000 67376.000000
61117.000000 19757.000000 113716.000000
29662.000000 56063.000000 89397.000000
33759.000000 25310.000000 32908.000000
34044.000000 50587.000000 141482.000000
16832.000000 19054.000000 113716.000000
48202.000000 20332.000000 38270.000000
18173.000000 50562.000000 5909.000000
41917.000000 21323.000000 14908.000000
37770.000000 32587.000000 17206.000000
31577.000000 11797.000000 115439.000000
52042.000000 15161.000000 124822.000000
51185.000000 29906.000000 84035.000000
28896.000000 12864.000000 100836.000000
46513.000000 46004.000000 126546.000000
34852.000000 30672.000000 56461.000000
24603.000000 13055.000000 110652.000000
38824.000000 14204.000000 118886.000000
19322.000000 51752.000000 62972.000000
33875.000000 14518.000000 72546.000000
57045.000000 20379.000000 126354.000000
36276.000000 53842.000000 89780.000000
59882.000000 19183.000000 118886.000000
12685.000000 25693.000000 112184.000000
11854.000000 49098.000000 128077.000000
35215.000000 31365.000000 64695.000000
55603.000000 21289.000000 134588.000000
32224.000000 1566.000000 101844.000000
28568.000000 28374.000000 142056.000000
30237.000000 29480.000000 67896.000000
43449.000000 25822.000000 144737.000000
44790.000000 15857.000000 62972.000000
40002.000000 43119.000000 145973.000000
35215.000000 52884.000000 98109.000000
30171.000000 33736.000000 167524.000000
40960.000000 28230.000000 640.000000
13769.000000 35889.000000 86525.000000
23474.000000 22629.000000 80014.000000
49194.000000 18040.000000 132290.000000
7039.000000 29934.000000 103463.000000
49002.000000 25148.000000 145503.000000
13386.000000 39706.000000 130950.000000
43066.000000 46924.000000 110461.000000
33300.000000 19281.000000 162545.000000
47470.000000 42862.000000 81546.000000
40960.000000 16151.000000 129035.000000
36364.000000 51204.000000 83078.000000
16258.000000 30390.000000 80014.000000
42109.000000 34502.000000 62114.000000
33902.000000 47906.000000 75993.000000
30620.000000 37073.000000 157949.000000
22194.000000 51880.000000 110844.000000
26598.000000 55168.000000 111035.000000
52066.000000 27308.000000 105482.000000
52383.000000 36799.000000 102610.000000
59529.000000 28183.000000 120035.000000
30369.000000 54225.000000 10696.000000
12301.000000 35842.000000 114099.000000
26981.000000 53507.000000 75610.000000
45364.000000 34674.000000 11270.000000
19513.000000 52701.000000 75801.000000
38279.000000 42762.000000 77333.000000
12975.000000 46182.000000 123482.000000
4189.000000 45608.000000 112950.000000
46322.000000 34885.000000 146114.000000
33875.000000 19920.000000 156609.000000
38662.000000 33544.000000 152779.000000
28802.000000 36015.000000 65844.000000
32663.000000 38467.000000 70845.000000
52968.000000 36799.000000 138609.000000
20088.000000 52417.000000 57993.000000
27939.000000 47147.000000 38270.000000
34551.000000 22438.000000 28696.000000
16728.000000 51544.000000 47270.000000
17407.000000 47896.000000 100886.000000
59343.000000 28700.000000 126928.000000
53789.000000 26651.000000 112850.000000
14793.000000 39672.000000 95716.000000
23535.000000 57565.000000 44589.000000
45173.000000 40629.000000 73616.000000
15875.000000 29704.000000 90737.000000
40194.000000 50555.000000 125780.000000
13602.000000 33161.000000 123290.000000
17936.000000 49438.000000 29653.000000
31253.000000 44267.000000 62972.000000
31815.000000 53650.000000 123482.000000
31194.000000 25310.000000 169846.000000
38279.000000 22772.000000 139950.000000
23917.000000 53495.000000 120035.000000
13740.000000 22246.000000 106439.000000
53292.000000 32970.000000 119652.000000
13003.000000 36513.000000 73121.000000
44453.000000 15353.000000 53014.000000
20279.000000 33384.000000 63355.000000
35923.000000 23012.000000 6292.000000
34023.000000 15161.000000 50142.000000
10896.000000 35651.000000 103785.000000
41917.000000 48118.000000 135737.000000
54288.000000 21863.000000 139375.000000
16641.000000 44434.000000 164.000000
46335.000000 26651.000000 60674.000000
53024.000000 39350.000000 129801.000000
22003.000000 53744.000000 90163.000000
41151.000000 15687.000000 35015.000000
31768.000000 47331.000000 146345.000000
27556.000000 18876.000000 154503.000000
47662.000000 21832.000000 67759.000000
48045.000000 21863.000000 76246.000000
21811.000000 19504.000000 105099.000000
38279.000000 22291.000000 21802.000000
28548.000000 38906.000000 61823.000000
50277.000000 18991.000000 112375.000000
24875.000000 53374.000000 102227.000000
19103.000000 22629.000000 92844.000000
27634.000000 49438.000000 28887.000000
28513.000000 29523.000000 169836.000000
21620.000000 56623.000000 48993.000000
18892.000000 55757.000000 21993.000000
31020.000000 18800.000000 64504.000000
32478.000000 59203.000000 2270.000000
37705.000000 31485.000000 7440.000000
45556.000000 45814.000000 118695.000000
44655.000000 23395.000000 11462.000000
26407.000000 53842.000000 140165.000000
23343.000000 49680.000000 8589.000000
17790.000000 51360.000000 104333.000000
49810.000000 40438.000000 139184.000000
14726.000000 40741.000000 117737.000000
47000.000000 24353.000000 51100.000000
6109.000000 40055.000000 105545.000000
28513.000000 12289.000000 105619.000000
35598.000000 3707.000000 107014.000000
44407.000000 29714.000000 39550.000000
15492.000000 43231.000000 140333.000000
31768.000000 52884.000000 103418.000000
14245.000000 46757.000000 136120.000000
35407.000000 43456.000000 147992.000000
38471.000000 11759.000000 164.000000
24300.000000 49172.000000 19504.000000
19322.000000 25517.000000 129609.000000
14152.000000 48249.000000 63355.000000
18939.000000 51060.000000 142247.000000
21743.000000 23970.000000 153928.000000
30170.000000 56714.000000 25249.000000
23726.000000 37565.000000 143934.000000
52499.000000 34502.000000 106822.000000
14390.000000 39289.000000 57993.000000
31879.000000 16310.000000 88631.000000
15301.000000 31629.000000 129584.000000
34832.000000 13528.000000 125971.000000
43449.000000 16865.000000 125014.000000
36939.000000 16390.000000 88057.000000
22960.000000 43195.000000 33291.000000
30739.000000 15927.000000 81355.000000
49118.000000 22055.000000 102801.000000
37705.000000 36416.000000 70497.000000
2194.000000 35842.000000 106631.000000
23535.000000 15709.000000 97439.000000
54938.000000 14109.000000 118886.000000
36744.000000 28374.000000 14717.000000
39236.000000 32219.000000 24674.000000
20660.000000 51352.000000 14717.000000
17215.000000 19908.000000 99163.000000
35598.000000 24633.000000 168098.000000
44995.000000 29331.000000 26781.000000
26024.000000 22267.000000 131907.000000
54172.000000 29906.000000 140351.000000
29088.000000 61310.000000 16890.000000
29088.000000 13670.000000 121950.000000
55130.000000 36416.000000 133952.000000
14343.000000 41395.000000 101295.000000
22960.000000 33005.000000 156226.000000
38088.000000 17542.000000 95716.000000
30293.000000 46757.000000 56844.000000
37322.000000 11869.000000 50525.000000
44832.000000 29331.000000 18355.000000
15109.000000 33075.000000 70631.000000
39236.000000 29248.000000 52057.000000
25258.000000 17651.000000 93087.000000
20662.000000 52510.000000 67376.000000
31194.000000 16885.000000 130428.000000
15301.000000 57097.000000 113119.000000
45956.000000 33353.000000 6100.000000
15281.000000 45991.000000 48227.000000
24492.000000 59412.000000 31376.000000
8407.000000 46374.000000 107324.000000
46704.000000 20330.000000 118503.000000
37705.000000 21554.000000 12994.000000
19982.000000 27225.000000 160630.000000
25641.000000 58137.000000 1121.000000
13086.000000 45608.000000 66993.000000
42455.000000 15941.000000 103567.000000
33217.000000 57672.000000 9547.000000
5867.000000 33927.000000 109695.000000
44981.000000 21440.000000 18355.000000
28705.000000 62842.000000 4666.000000
56001.000000 18034.000000 105290.000000
40194.000000 34516.000000 12036.000000
36939.000000 34456.000000 159864.000000
29471.000000 55309.000000 37504.000000
36388.000000 25119.000000 149524.000000
1513.000000 27225.000000 109205.000000
34449.000000 18147.000000 37312.000000
29025.000000 54033.000000 44397.000000
42109.000000 14502.000000 68908.000000
47546.000000 19949.000000 71972.000000
47662.000000 21480.000000 56658.000000
28130.000000 24544.000000 71476.000000
22769.000000 48672.000000 31.000000
13686.000000 53267.000000 127311.000000
30237.000000 17912.000000 70057.000000
40535.000000 3098.000000 104524.000000
31799.000000 23587.000000 60674.000000
52258.000000 16934.000000 116014.000000
52133.000000 32970.000000 114865.000000
39811.000000 48472.000000 104716.000000
19903.000000 53076.000000 81929.000000
17024.000000 17998.000000 109312.000000
24184.000000 26268.000000 145311.000000
13518.000000 45991.000000 75418.000000
44215.000000 28082.000000 43823.000000
49401.000000 27991.000000 74844.000000
17024.000000 47918.000000 95525.000000
15301.000000 34264.000000 65461.000000
45961.000000 45225.000000 135354.000000
26407.000000 40989.000000 48610.000000
44926.000000 8459.000000 99929.000000
26215.000000 35776.000000 159290.000000
45173.000000 45560.000000 101078.000000
49194.000000 26409.000000 93227.000000
54938.000000 25704.000000 108546.000000
43098.000000 17842.000000 83269.000000
17215.000000 39703.000000 50525.000000
44024.000000 18800.000000 90.000000
24363.000000 22438.000000 148758.000000
8442.000000 46374.000000 116205.000000
39045.000000 31474.000000 3036.000000
17325.000000 55757.000000 36355.000000
43516.000000 17842.000000 98205.000000
18173.000000 57454.000000 26972.000000
27992.000000 50970.000000 12611.000000
24300.000000 21672.000000 167091.000000
39428.000000 18346.000000 91503.000000
53407.000000 17268.000000 97940.000000
15986.000000 25119.000000 120801.000000
48464.000000 28374.000000 69674.000000
43282.000000 43502.000000 143013.000000
21237.000000 56246.000000 117737.000000
32343.000000 55757.000000 16555.000000
26981.000000 40438.000000 148113.000000
25258.000000 58549.000000 37312.000000
34659.000000 29331.000000 60674.000000
14343.000000 38959.000000 63929.000000
13208.000000 40055.000000 126354.000000
44243.000000 27608.000000 52631.000000
37705.000000 14326.000000 104716.000000
21747.000000 26842.000000 133631.000000
36556.000000 17925.000000 29462.000000
25641.000000 60380.000000 23334.000000
47649.000000 44267.000000 90163.000000
39811.000000 48013.000000 83652.000000
17024.000000 48970.000000 34249.000000
38282.000000 16502.000000 83844.000000
32447.000000 44842.000000 67184.000000
28322.000000 46278.000000 44206.000000
30841.000000 62076.000000 10696.000000
41726.000000 15679.000000 75993.000000
35981.000000 22246.000000 164354.000000
23535.000000 52070.000000 143013.000000
1513.000000 26459.000000 101343.000000
21811.000000 41471.000000 43057.000000
42300.000000 28804.000000 147801.000000
32834.000000 15353.000000 57610.000000
28513.000000 51997.000000 63929.000000
50887.000000 38714.000000 88631.000000
7450.000000 38591.000000 113141.000000
18459.000000 56331.000000 40568.000000
16641.000000 38906.000000 137017.000000
27556.000000 12289.000000 113904.000000
37322.000000 12203.000000 57993.000000
51109.000000 32012.000000 89536.000000
13386.000000 27468.000000 116397.000000
25060.000000 19374.000000 85184.000000
13642.000000 46374.000000 131716.000000
44407.000000 35937.000000 65461.000000
20940.000000 58246.000000 15291.000000
61640.000000 23970.000000 112689.000000
46142.000000 27608.000000 12036.000000
29854.000000 24353.000000 142874.000000
26407.000000 52693.000000 51730.000000
30811.000000 22849.000000 136886.000000
18693.000000 51352.000000 71014.000000
13646.000000 39672.000000 53780.000000
29662.000000 16846.000000 92269.000000
23152.000000 27034.000000 74070.000000
40960.000000 44842.000000 80501.000000
40126.000000 49438.000000 112758.000000
15554.000000 36034.000000 131716.000000
41207.000000 50395.000000 91120.000000
24109.000000 44292.000000 28887.000000
17598.000000 51790.000000 54546.000000
24492.000000 55159.000000 136503.000000
45364.000000 19779.000000 86333.000000
19513.000000 42718.000000 35972.000000
17489.000000 28948.000000 76184.000000
28896.000000 54416.000000 114999.000000
15875.000000 53268.000000 131907.000000
25449.000000 30594.000000 140141.000000
29854.000000 17790.000000 85184.000000
47087.000000 39757.000000 142439.000000
12428.000000 32353.000000 117929.000000
45173.000000 30097.000000 58156.000000
21237.000000 45416.000000 147352.000000
21620.000000 36961.000000 54929.000000
54433.000000 33736.000000 125397.000000
19233.000000 51927.000000 20079.000000
40768.000000 33053.000000 58185.000000
36102.000000 27417.000000 41717.000000
51875.000000 41241.000000 116971.000000
43258.000000 8135.000000 106248.000000
34641.000000 51161.000000 111489.000000
48003.000000 20715.000000 98971.000000
35470.000000 53076.000000 118312.000000
38788.000000 29906.000000 154886.000000
49960.000000 17268.000000 127856.000000
28322.000000 21576.000000 168290.000000
29088.000000 40821.000000 54709.000000
50454.000000 34119.000000 75610.000000
45939.000000 28716.000000 30993.000000
43449.000000 19378.000000 90929.000000
51352.000000 41012.000000 122907.000000
7592.000000 25885.000000 104524.000000
15450.000000 44842.000000 52440.000000
44981.000000 17161.000000 132673.000000
32111.000000 21480.000000 56270.000000
16067.000000 47802.000000 55695.000000
17525.000000 20906.000000 118886.000000
34216.000000 22246.000000 36547.000000
38662.000000 8034.000000 102610.000000
38181.000000 26268.000000 159673.000000
11279.000000 43310.000000 116195.000000
53981.000000 11980.000000 110078.000000
55513.000000 29046.000000 119269.000000
50947.000000 29331.000000 99163.000000
23871.000000 28566.000000 168290.000000
48272.000000 22438.000000 31185.000000
58819.000000 20906.000000 122524.000000
50960.000000 26459.000000 109503.000000
35407.000000 16455.000000 42100.000000
34258.000000 40438.000000 150672.000000
32476.000000 22246.000000 44780.000000
15404.000000 45991.000000 60099.000000
41343.000000 32364.000000 19313.000000
14740.000000 47523.000000 70440.000000
27556.000000 52840.000000 4377.000000
23917.000000 15910.000000 120035.000000
42875.000000 48054.000000 127694.000000
44673.000000 17651.000000 79440.000000
47279.000000 23409.000000 24866.000000
44981.000000 17513.000000 29462.000000
11323.000000 55374.000000 121375.000000
15228.000000 36991.000000 123482.000000
34066.000000 17796.000000 133248.000000
23189.000000 62650.000000 8972.000000
28896.000000 54674.000000 95333.000000
27364.000000 20695.000000 77525.000000
46652.000000 19374.000000 64504.000000
47087.000000 45303.000000 122524.000000
12896.000000 26459.000000 102993.000000
35407.000000 22143.000000 143205.000000
47853.000000 36021.000000 72546.000000
12237.000000 40078.000000 71014.000000
47853.000000 20140.000000 48347.000000
22769.000000 30210.000000 148184.000000
18556.000000 53847.000000 50142.000000
24109.000000 53050.000000 98205.000000
48740.000000 22438.000000 41908.000000
47662.000000 43374.000000 97056.000000
31768.000000 19177.000000 153162.000000
35575.000000 27991.000000 8206.000000
18452.000000 48863.000000 25440.000000
37896.000000 14374.000000 76567.000000
40768.000000 30005.000000 37695.000000
32343.000000 52693.000000 81701.000000
37259.000000 16885.000000 34632.000000
46896.000000 43790.000000 104524.000000
46892.000000 27800.000000 36930.000000
20347.000000 58629.000000 7632.000000
49002.000000 42523.000000 135737.000000
41343.000000 38834.000000 69099.000000
59534.000000 22629.000000 107948.000000
22577.000000 30952.000000 69865.000000
35407.000000 1140.000000 99354.000000
45173.000000 15583.000000 44397.000000
409.000000 29523.000000 106056.000000
13367.000000 41587.000000 67376.000000
27939.000000 53232.000000 120418.000000
31523.000000 23204.000000 64695.000000
26024.000000 21480.000000 135897.000000
11279.000000 29523.000000 110064.000000
11008.000000 33544.000000 111035.000000
4175.000000 41587.000000 112567.000000
54364.000000 9492.000000 104907.000000
38471.000000 31821.000000 55088.000000
44180.000000 16119.000000 71972.000000
13003.000000 44855.000000 106056.000000
15728.000000 44650.000000 41334.000000
25832.000000 55256.000000 90354.000000
52481.000000 33544.000000 141290.000000
30045.000000 56781.000000 164.000000
35843.000000 21289.000000 2653.000000
37513.000000 6275.000000 96865.000000
14304.000000 22055.000000 112758.000000
41726.000000 38344.000000 148375.000000
26024.000000 60359.000000 19313.000000
32971.000000 42544.000000 70440.000000
51683.000000 12491.000000 103184.000000
14535.000000 35710.000000 96291.000000
34442.000000 49821.000000 79631.000000
42875.000000 34721.000000 3802.000000
35215.000000 26268.000000 20617.000000
29266.000000 55757.000000 85376.000000
13474.000000 39289.000000 88631.000000
14987.000000 44842.000000 93801.000000
48163.000000 23970.000000 18355.000000
45044.000000 32587.000000 164.000000
30971.000000 49821.000000 74078.000000
47315.000000 41204.000000 77908.000000
11502.000000 47331.000000 164.000000
22360.000000 25119.000000 166758.000000
28896.000000 48195.000000 24100.000000
37896.000000 14778.000000 3518.000000
55830.000000 20332.000000 130567.000000
47279.000000 8010.000000 105673.000000
13003.000000 38861.000000 81163.000000
22577.000000 32343.000000 164843.000000
37896.000000 30653.000000 30802.000000
41151.000000 20906.000000 137547.000000
57045.000000 31840.000000 127694.000000
27710.000000 44650.000000 47844.000000
28322.000000 49147.000000 16249.000000
21673.000000 20523.000000 124822.000000
26407.000000 54695.000000 129609.000000
18747.000000 51534.000000 90546.000000
